ncols        163
nrows        31
xllcorner    578398.432241
yllcorner    2319283.22791
cellsize     100.000000000000
NODATA_value  1.7014100000000001e+038
4.9619358706999996 4.9949821990999999 5.0280285275000001 5.0610748558000003 5.0470328831 5.0286707931999999 5.0103087033999998 4.9919466135999997 4.9735845237999996 4.9552224340000004 4.9368603441000003 4.9184982543000002 4.9001361645000001 4.8817740747 4.8634119848999999 4.8450498949999998 4.8266878051999997 4.8083257153999996 4.7899636256000004 4.7716015358000003 4.7532394459000002 4.7348773561000002 4.7165152663000001 4.6981531765 4.6819365723999997 4.6666189909 4.6513014094000003 4.6359838279999996 4.6206662464999999 4.6970986261999998 4.9097162453000003 5.1223338644999998 5.3349514836000003 5.5475691026999998 5.7601867219000003 5.9728043409999998 6.1854219602000002 6.3980395792999998 6.3982686393000003 6.4366021518999998 6.4749356645000002 6.5132691770999998 6.5444057385000001 6.5696744335000004 6.5949431284999998 6.6202118235 6.6454805185000003 6.6707492134999997 6.6960179085 6.7212866035000003 6.7465552984999997 6.7718239935 6.7970926885000003 6.8223613834999997 6.8476300785999999 6.8728987736000002 6.8981674685999996 6.9234361635999999 6.9487048586000002 6.9002011467999997 6.8474477796000004 6.7946944125000002 6.7419410453999999 6.6891876782999997 6.6364343112000004 6.5556166916 6.4739643280000001 6.3923119645000002 6.3106596010000002 6.2290072374000003 6.1473548739000003 6.0657025104000004 5.9840501468999996 5.9023977832999996 5.8840061719000003 5.8662210347999997 5.8484358976999999 5.8306507605000002 5.8128656233999996 5.7950804862999998 5.7772953492000001 5.7613634668999998 5.7896008940000003 5.8178383211 5.8300013740000001 5.8067194340999997 5.7834374941000002 5.7601555541999998 5.7368736142000003 5.7135916742999999 5.6903097344000004 5.6670277944 5.6596240276999996 5.6729175478 5.6862110679000004 5.6995045879999999 5.7127981081000003 5.7260916281999998 5.7320390704999999 5.7373273246999998 5.7426155789999997 5.7479038331999996 5.7679119702000001 6.1048298437000001 6.4417477171000002 6.7786655906000002 6.9420337349999999 6.9581290609000002 6.9919328196999997 7.0423755379999999 7.0928182563000002 7.1432609746000004 7.1937036928999998 7.2441464112 7.2945891295000003 7.3450318477999996 7.3954745660999999 7.7406996240000003 8.1811849965000008 8.6216703689000003 8.7260411814999994 8.8197351431000008 8.9134291048000005 9.0071230665000002 9.1008170280999998 9.1945109897999995 9.2882049513999991 9.3818989131000006 9.4755928748000002 9.5692868363999999 9.6629807980999995 9.7566747596999992 9.8503687214000006 9.9440626831000003 10.0377566447 10.1314506064 10.225144567999999 10.3028096289 10.291723426100001 10.280637223299999 10.2695510205 10.2584648177 10.136553702100001 9.9414901875999995 9.7428381632000001 9.4509177652999998 9.1589973673999996 8.8670769693999993 8.5751565715000009 8.2617133921000008 7.8974460762999996 7.5331787606000002 7.1689114449 7.0867436896999996 7.0925033806000002 7.0982630714999999 7.1040227623999996 7.1097824534000003 7.1155421443 7.1213018351999997 7.1270615261000003 7.132821217 7.1385809078999998
4.9942054903999997 5.0272518187999999 5.0602981472000002 5.0456839972000003 5.0273219074000002 5.0089598175000001 4.9905977277 4.9722356378999999 4.9538735480999998 4.9355114582999997 4.9171493683999996 4.8987872786000004 4.8804251888000003 4.8620630990000002 4.8437010092000001 4.8253389193 4.8069768294999999 4.7908104153000002 4.7754928337999996 4.7601752522999998 4.7448576708000001 4.7295400893000004 4.7142225077999997 4.6989049263 4.6835873448000003 4.6682697632999997 4.6529521817999999 4.6376346003000002 4.6223170188999996 4.7039099244999996 4.9165275436 5.1291451628000004 5.3417627819 5.5543804010000004 5.7669980202 5.9796156393000004 6.1922332583999999 6.3841000744 6.4003664215000002 6.3288215805999997 6.2994593581 6.3377928707000004 6.3761263832999999 6.4144598959000003 6.4527934084999998 6.4911269211000002 6.5294604336999997 6.5677939463000001 6.6061274587999996 6.6444609714 6.6827944840000004 6.7211279965999999 6.7594615092000003 6.7977950217999998 6.8361285344000002 6.8744620469999997 6.9010939463999996 6.9263626413999999 6.9516313364000002 6.9427854548000001 6.8844562446999999 6.8028038811 6.7211515176000001 6.6394991541000001 6.5578467905000002 6.4761944270000003 6.3945420635000003 6.3128897000000004 6.2312373364000004 6.1495849728999996 6.0679326093999997 5.9862802458999997 5.9253254880000004 5.9075403507999997 5.8897552137 5.8719700766000003 5.8541849394999996 5.8363998023999999 5.8186146652000001 5.8008295281000004 5.7830443909999998 5.7652592539 5.7474741168000003 5.7672874416999997 5.7955248688000003 5.8237622959999999 5.8411158753999999 5.8178339355000004 5.7945519956 5.7712700555999996 5.7479881157000001 5.7247061756999997 5.7014242358000002 5.6884978812 5.7017914013000004 5.7150849213999999 5.7283784415000003 5.7416719615999998 5.7515093777999997 5.7567976319999996 5.7620858863000004 5.7673741405000003 5.8210739111000001 6.1579917846000001 6.4949096580000001 6.8109996090999996 6.8270949349999999 6.8431902608000001 6.8888896110999998 6.9393323294 6.9897750477000002 7.0402177659999996 7.0906604842999998 7.1411032026000001 7.1915459209000003 7.2419886391999997 7.2924313574999999 7.4730793646000002 7.9135647369999997 8.3540501094999993 8.5546731554999997 8.6483671171999994 8.7420610788000008 8.8357550405000005 8.9294490022000002 9.0231429637999998 9.1168369254999995 9.2105308870999991 9.3042248488000006 9.3979188105000002 9.4916127720999999 9.5853067337999995 9.6790006953999992 9.7726946571000006 9.8663886188000003 9.9600825803999999 10.0537765421 10.147470503699999 10.241164465400001 10.280815745 10.2697295422 10.258643339500001 10.235994077300001 10.0409305629 9.8346012815999995 9.5426808836999992 9.2507604858000008 8.9588400879000005 8.6669196899000003 8.3553868697000002 7.9911195538999999 7.6268522381999997 7.2625849225000003 7.1414822583999999 7.1472419492999997 7.1530016402000003 7.1587613311 7.1645210219999997 7.1702807130000004 7.1760404039000001 7.1818000947999998 7.1875597857000004 7.1933194766000002
5.0264751100999998 5.0595214385 5.0443351112999997 5.0259730214999996 5.0076109317000004 4.9892488419000003 4.9708867520000002 4.9525246622000001 4.9341625724 4.9158004825999999 4.8996842580999997 4.8843666766 4.8690490951000003 4.8537315136999997 4.8384139321999999 4.8230963507000002 4.8077787691999996 4.7924611876999998 4.7771436062000001 4.7618260247000004 4.7465084431999998 4.7311908617 4.7158732802000003 4.7005556986999997 4.6852381171999999 4.6699205357000002 4.6546029541999996 4.6392853726999999 4.6239677913000001 4.7218880124 4.9233388418999997 5.1359564610000001 5.3485740801999997 5.5611916993000001 5.7738093183999997 5.9864269376000001 6.1990445566999997 6.3609412440000002 6.4084295902999999 6.3620615001000003 6.2905166591999997 6.2189718183 6.2006500769999997 6.2389835896000001 6.2773171020999996 6.3156506147 6.3539841273000004 6.3923176398999999 6.4306511525000003 6.4689846650999998 6.5073181777000002 6.5456516902999997 6.5839852029000001 6.6223187153999996 6.660652228 6.6989857406000004 6.7373192531999999 6.7756527658000003 6.8366475842999996 6.8866863437000001 6.8050339801000002 6.7233816166000002 6.6417292531000003 6.5600768895000003 6.4784245260000004 6.3967721624999996 6.3151197989999996 6.2334674353999997 6.1518150718999998 6.0701627083999998 5.9885103448999999 5.9488596668999998 5.9310745298000001 5.9132893926000003 5.8955042554999997 5.8777191183999999 5.8599339813000002 5.8421488441999996 5.8243637069999998 5.8065785699000001 5.7887934328000004 5.7710082956999997 5.7532231586 5.7354380214000003 5.7449739895 5.7732114165999997 5.8014488437000002 5.8296862707999999 5.8522303768999997 5.8289484369000002 5.8056664969999998 5.7823845571000003 5.7591026170999999 5.7358206772000004 5.7173717347000004 5.7306652547999999 5.7439587749000003 5.7572522949999998 5.7705458151000002 5.7762679394000003 5.7815561936000002 5.7868444478000001 5.874235852 6.2111537255 6.5480715989 6.6960608089999996 6.7121561348999998 6.7354036841999996 6.7858464023999998 6.8362891207000001 6.8867318390000003 6.9371745572999997 6.9876172755999999 7.0380599939000001 7.0885027122000004 7.1389454304999997 7.1893881488 7.2398308671000002 7.6459444775999996 8.0864298501 8.3833051296000001 8.4769990911999997 8.5706930528999994 8.6643870146000008 8.7580809762000005 8.8517749379000001 8.9454688994999998 9.0391628611999995 9.1328568228999991 9.2265507845000005 9.3202447462000002 9.4139387077999999 9.5076326694999995 9.6013266311999992 9.6950205928000006 9.7887145545000003 9.8824085160999999 9.9761024777999996 10.069796439499999 10.163490401100001 10.2571843628 10.2588218612 10.2477356584 10.1403709382 9.9263644000000006 9.6344440021000004 9.3425236042000002 9.0506032062999999 8.7586828083999997 8.4490603472999997 8.0847930315000003 7.7205257158 7.3562584000999998 7.1962208271000003 7.2019805180000001 7.2077402088999998 7.2134998998000004 7.2192595907000001 7.2250192816999999 7.2307789725999996 7.2365386635000002 7.2422983543999999 7.2480580452999996
5.0587447297999999 5.0429862254 5.0246241355999999 5.0085581010000002 4.9932405194999996 4.9779229379999999 4.9626053565000001 4.9472877750000004 4.9319701934999998 4.916652612 4.9013350305000003 4.8860174489999997 4.8706998674999999 4.8553822861000002 4.8400647045999996 4.8247471230999999 4.8094295416000001 4.7941119601000004 4.7787943785999998 4.7634767971 4.7481592156000003 4.7328416340999997 4.7175240526 4.7022064711000002 4.6868888895999996 4.6715713080999999 4.6562537266000001 4.6409361451000004 4.6256185635999998 4.7440178156000004 4.9301501402000003 5.1427677592999999 5.3553853784000003 5.5680029975999998 5.7806206167000003 5.9932382358999998 6.2058558550000003 6.3377824135000003 6.3852707598 6.3953014197 6.3237565787000003 6.2522117377999997 6.1806668969 6.1091220560000004 6.1018407958000003 6.1401743083999998 6.1785078210000002 6.2168413335999997 6.2551748462000001 6.2935083586999996 6.3318418713 6.3701753839000004 6.4085088964999999 6.4468424091000003 6.4851759216999998 6.5235094343000002 6.5618429468999997 6.6448878769000004 6.8416386554999997 6.8072640791000003 6.7256117156000004 6.6439593521000004 6.5623069884999996 6.4806546249999997 6.3990022614999997 6.3173498979999998 6.2356975343999999 6.1540451708999999 6.0723928074 5.9907404439 5.9723938458000001 5.9546087087000004 5.9368235715999997 5.9190384344 5.9012532973000003 5.8834681601999996 5.8656830230999999 5.8478978860000002 5.8301127488000004 5.8123276116999998 5.7945424746 5.7767573375000003 5.7589722003999997 5.7411870632999999 5.7234019261000002 5.7226605372000003 5.7508979643 5.7791353913999997 5.8073728185000002 5.8356102455999999 5.8633448783000004 5.8400629384 5.8167809983999996 5.7934990585000001 5.7702171184999997 5.7469351786000002 5.7595391083000003 5.7728326283999998 5.7861261485000002 5.7957382467 5.8010265008999999 5.8063147550999998 5.9273977928999999 6.2643156662999999 6.5650266831000001 6.5811220090000004 6.5972173348999998 6.6323604754999996 6.6828031937999999 6.7332459121000001 6.7836886304000004 6.8341313486999997 6.884574067 6.9350167853000002 6.9854595035999996 7.0359022218999998 7.0863449402000001 7.1367876585000003 7.3783242182000004 7.8188095905999999 8.2119371036000004 8.3056310653000001 8.3993250268999997 8.4930189885999994 8.5867129503000008 8.6804069119000005 8.7741008736000001 8.8677948351999998 8.9614887968999994 9.0551827586000009 9.1488767202000005 9.2425706819000002 9.3362646434999998 9.4299586051999995 9.5236525668999992 9.6173465285000006 9.7110404902000003 9.8047344517999999 9.8984284134999996 9.9921223751999992 10.085816336800001 10.1795102985 10.2479141802 10.236827977400001 10.0181275185 9.7262071205999998 9.4342867225999996 9.1423663246999993 8.8504459268000009 8.5427338249000009 8.1784665090999997 7.8141991934000004 7.4499318777000001 7.2509593957999998 7.2567190867000004 7.2624787776000002 7.2682384684999999 7.2739981593999996 7.2797578504000002 7.2855175413 7.2912772321999997 7.2970369231000003 7.302796614
5.0558873530000001 5.0408440364000002 5.0255264548999996 5.0102088733999999 4.9948912919000001 4.9795737104000004 4.9642561288999998 4.9489385474000001 4.9336209659000003 4.9183033843999997 4.9029858029 4.8876682214000002 4.8723506398999996 4.8570330583999999 4.8417154770000002 4.8263978955000004 4.8110803139999998 4.7957627325000001 4.7804451510000003 4.7651275694999997 4.749809988 4.7344924065000002 4.7191748249999996 4.7038572434999999 4.6885396620000002 4.6732220805000004 4.6579044989999998 4.6425869175000001 4.6341904334999997 4.7661476186999998 4.9369614385 5.1495790575999996 5.3621966767 5.5748142959000004 5.787431915 6.0000495341000004 6.2126671533 6.3146235830000004 6.3621119293000001 6.4096002756999999 6.3569964983 6.2854516574000003 6.2139068163999998 6.1423619755000001 6.0708171346000004 5.9992722936999998 6.0030315146 6.0413650272000003 6.0796985397999999 6.1180320524000003 6.1563655649999998 6.1946990776000002 6.2330325901999997 6.2713661027000001 6.3096996152999996 6.3480331279 6.4531281695000002 6.6498789480999996 6.8094941780999996 6.7278418145999996 6.6461894510999997 6.5645370874999998 6.4828847239999998 6.4012323604999999 6.3195799969999999 6.2379276334 6.1562752699000001 6.0746229064000001 6.0137131618000002 5.9959280247000004 5.9781428875999998 5.9603577505000001 5.9425726134000003 5.9247874762999997 5.9070023390999999 5.8892172020000002 5.8714320648999996 5.8536469277999998 5.8358617907000001 5.8180766535000004 5.8002915163999997 5.7825063793 5.7647212422000003 5.7469361050999996 5.7291509678999999 5.7113658308000002 5.7003470848999998 5.7285845120000003 5.7568219391 5.7850593661999996 5.8132967933000002 5.8415342203999998 5.8697716476000004 5.8511774397999998 5.8278954999000003 5.8046135598999999 5.7813316199999996 5.7884129616999997 5.8017064818000001 5.8150000019999997 5.8204968081999997 5.8257850623999996 5.9805597337999998 6.3174776071999998 6.4500878831000001 6.4661832090000004 6.4822785348999998 6.5293172668999997 6.5797599851999999 6.6302027035000002 6.6806454218000004 6.7310881400999998 6.7815308584 6.8319735766000003 6.8824162948999996 6.9328590131999999 6.9833017315000001 7.0337444498000004 7.1107039587000003 7.5511893311999998 7.9916747036000002 8.1342630393000004 8.227957001 8.3216509626999997 8.4153449242999994 8.5090388860000008 8.6027328476000005 8.6964268093000001 8.7901207709999998 8.8838147325999994 8.9775086943000009 9.0712026559000005 9.1648966176000002 9.2585905792999998 9.3522845408999995 9.4459785025999992 9.5396724642000006 9.6333664259000003 9.7270603874999999 9.8207543491999996 9.9144483108999992 10.008142272500001 10.1018362342 10.1955301958 10.109890636899999 9.8179702389999992 9.5260498411000007 9.2341294431000005 8.9422090452000003 8.6364073025000003 8.2721399866999992 7.9078726709999998 7.5436053553000004 7.3056979645000002 7.3114576553999999 7.3172173462999996 7.3229770372000003 7.3287367281 7.3344964189999997 7.3402561100000003 7.3460158009000001 7.3517754917999998 7.3575351827000004
5.0566764348 5.0422130107000003 5.0271772273000002 5.0118596458000004 4.9965420642999998 4.9812244828000001 4.9659069013000003 4.9505893197999997 4.9352717383 4.9199541568000003 4.9046365752999996 4.8893189937999999 4.8740014123000002 4.8586838308000004 4.8433662492999998 4.8280486679000001 4.8127310864000004 4.7974135048999997 4.7820959234 4.7667783419000003 4.7514607603999996 4.7361431788999999 4.7208255974000002 4.7055080158999996 4.6901904343999998 4.6748728529000001 4.6595552714000004 4.6442376898999997 4.6563202367000001 4.7882774219000002 4.9437727366999997 5.1563903559000002 5.3690079749999997 5.5816255941000001 5.7942432132999997 6.0068608324000001 6.2194784514999997 6.2914647525999996 6.3389530989000002 6.3864414452 6.3902364177999997 6.3186915769000001 6.2471467360000004 6.1756018949999998 6.1040570541000001 6.0325122132000004 5.9609673722999998 5.8894225314000002 5.9042222334999996 5.9425557461 5.9808892586000004 6.0192227711999999 6.0575562838000003 6.0958897963999998 6.1342233090000002 6.2613684621000001 6.4581192407000003 6.6548700191999997 6.7300719135999998 6.6484195500999999 6.5667671864999999 6.485114823 6.4034624595 6.3218100960000001 6.2401577324000002 6.1585053689000002 6.0768530054000003 6.0372473407999996 6.0194622036999998 6.0016770665000001 5.9838919294000004 5.9661067922999997 5.9483216552 5.9305365181000003 5.9127513808999996 5.8949662437999999 5.8771811067000002 5.8593959696000004 5.8416108324999998 5.8238256953 5.8060405582000003 5.7882554210999997 5.7704702839999999 5.7526851469000002 5.7349000096999996 5.7171148725999998 5.6993297355000001 5.6815445984000004 5.7062710597999997 5.7345084869000003 5.7627459139999999 5.7909833410999996 5.8192207682000001 5.8474581952999998 5.8756956224000003 5.8622919411999996 5.8390100013000001 5.8157280613999998 5.8172868152000001 5.8305803352999996 5.8399671155000004 5.8452553698000003 6.0337216745999998 6.3190537571999998 6.3351490831000001 6.3512444089000004 6.3758313399000004 6.4262740581999998 6.4767167765 6.5271594948000002 6.5776022130999996 6.6280449313999998 6.6784876497000001 6.7289303680000003 6.7793730862999997 6.8298158045999999 6.8802585229000002 6.9307012412000004 6.9811439594999998 7.2835690717999997 7.7240544442000001 7.9628950133999998 8.0565889750000004 8.1502829367 8.2439768983999997 8.3376708599999994 8.4313648217000008 8.5250587833000004 8.6187527450000001 8.7124467066999998 8.8061406682999994 8.8998346300000009 8.9935285916000005 9.0872225533000002 9.1809165149999998 9.2746104765999995 9.3683044382999991 9.4619983999000006 9.5556923616000002 9.6493863232999999 9.7430802848999996 9.8367742465999992 9.9304682082000006 9.9895742461000001 10.006551780500001 9.9097333574000004 9.6178129595000001 9.3258925615999999 9.0339721636999997 8.7300807800999998 8.3658134644000004 8.0015461485999992 7.6372788328999999 7.3604365331999997 7.3661962241000003 7.371955915 7.3777156058999998 7.3834752968000004 7.3892349877000001 7.3949946786999998 7.4007543696000004 7.4065140605000002 7.4122737513999999
5.0574655166999998 5.0430020925000001 5.0285386684000004 5.0135104182000001 4.9981928367000004 4.9828752551999997 4.9675576737 4.9522400922000003 4.9369225106999997 4.9216049291999999 4.9062873477000002 4.8909697661999996 4.8756521846999998 4.8603346032000001 4.8450170217000004 4.8296994402999998 4.8143818588 4.7990642773000003 4.7837466957999997 4.7684291142999999 4.7531115328000002 4.7377939512999996 4.7224763697999999 4.7071587883000001 4.6918412068000004 4.6765236252999998 4.6612060438 4.6458884623000003 4.6784500399000004 4.8104072250999996 4.9505840350000003 5.1632016540999999 5.3758192733000003 5.5884368923999999 5.8010545116000003 6.0136721306999998 6.2208175757999999 6.2683059220999997 6.3157942684000004 6.3632826147000001 6.4107709609999999 6.3519314963999998 6.2803866555000001 6.2088418146000004 6.1372969736999998 6.0657521327000001 5.9942072917999996 5.9226624508999999 5.8511176100000002 5.7795727689999996 5.8054129523000002 5.8437464648999997 5.8820799775000001 5.9204134900999996 6.0696087548 6.2663595333000002 6.4631103118000004 6.6598610902999997 6.6506496491 6.5689972855000001 6.4873449220000001 6.4056925585000002 6.3240401950000003 6.2423878314000003 6.1607354679000004 6.0790831044000004 6.0607815196999999 6.0429963826000002 6.0252112455000004 6.0074261082999998 5.9896409712000001 5.9718558341000003 5.9540706969999997 5.9362855599 5.9185004227000002 5.9007152855999996 5.8829301484999998 5.8651450114000001 5.8473598743000004 5.8295747370999997 5.8117896 5.7940044629000003 5.7762193257999996 5.7584341886999999 5.7406490515000002 5.7228639144000004 5.7050787772999998 5.6872936402000001 5.6695085031000003 5.6839576075 5.7121950345999997 5.7404324617000002 5.7686698887999999 5.7969073159000004 5.8251447430000001 5.8533821700999997 5.8816195972000003 5.8734064427000003 5.8501245027 5.8461606686999996 5.8594374228000001 5.8647256771 6.0868836154999997 6.2041149570999998 6.2202102830000001 6.2363056089000004 6.2727881312999996 6.3232308495999998 6.3736735679000001 6.4241162862000003 6.4745590044999997 6.5250017227999999 6.5754444411000001 6.6258871594000004 6.6763298776999997 6.726772596 6.7772153143000002 6.8276580324999996 6.8781007507999998 7.0159488122999996 7.4564341848 7.7915269874000002 7.8852209490999998 7.9789149107000004 8.0726088724 8.1663028340999997 8.2599967956999993 8.3536907574000008 8.4473847190000004 8.5410786807000001 8.6347726423999998 8.7284666039999994 8.8221605657000008 8.9158545273000005 9.0095484890000002 9.1032424506999998 9.1969364122999995 9.2906303739999991 9.3843243356000006 9.4780182973000002 9.5717122589999999 9.6654062205999995 9.7037795872999997 9.7207571217000002 9.7377346561000007 9.7547121904999994 9.7095760778999995 9.4176556799999993 9.1257352821000008 8.8237542576999992 8.4594869419999998 8.0952196262000005 7.7309523105000002 7.4151751019000001 7.4209347927999998 7.4266944837000004 7.4324541746000001 7.4382138654999999 7.4439735563999996 7.4497332473000002 7.4554929382999999 7.4612526291999997 7.4670123201000003
5.0582545985999996 5.0437911743999999 5.0293277502000002 5.0148643260999997 4.9998436091 4.9845260276000003 4.9692084460999997 4.9538908645999999 4.9385732831000002 4.9232557015999996 4.9079381200999999 4.8926205386000001 4.8773029571000004 4.8619853755999998 4.8466677941 4.8313502126000003 4.8160326311999997 4.8007150497 4.7853974682000002 4.7700798866999996 4.7547623051999999 4.7394447237000001 4.7241271422000004 4.7088095606999998 4.6934919792000001 4.6781743977000003 4.6628568161999997 4.6475392347 4.7005798429999999 4.8325370282 4.9644942134000001 5.1700129523999996 5.3826305716 5.5952481906999996 5.8078658098 6.0204834290000004 6.1976587453 6.2451470915999998 6.2926354378999996 6.3401237842000002 6.3876121306 6.3851714160000004 6.3136265749999998 6.2420817341000001 6.1705368932000004 6.0989920522999999 6.0274472113000002 5.9559023703999996 5.8843575294999999 5.8128126886000002 5.7412678475999996 5.6697230067 5.7066036710999999 5.8778490473999998 6.0745998259 6.2713506044000003 6.4681013828999996 6.6528797481000002 6.5712273845000002 6.4895750210000003 6.4079226575000003 6.3262702940000004 6.2446179303999996 6.1629655668999996 6.1021008356999999 6.0843156986000002 6.0665305614999996 6.0487454243999998 6.0309602873000001 6.0131751501000004 5.9953900129999997 5.9776048759 5.9598197388000003 5.9420346016999996 5.9242494644999999 5.9064643274000002 5.8886791903000004 5.8708940531999998 5.8531089161000001 5.8353237790000003 5.8175386417999997 5.7997535047 5.7819683676000002 5.7641832304999996 5.7463980933999999 5.7286129562000001 5.7108278191000004 5.6930426819999997 5.6752575449 5.6574724078000003 5.6616441552000003 5.6898815823 5.7181190093999996 5.7463564365000002 5.7745938635999998 5.8028312907000004 5.8310687178 5.8593061448999997 5.8875435720000002 5.8845209441000002 5.8750345222 5.8841959843999998 6.0730808312000004 6.0891761570999998 6.1052714830000001 6.1213668089000004 6.1697449225999996 6.2201876408999999 6.2706303592000001 6.3210730775000004 6.3715157957999997 6.4219585141 6.4724012324000002 6.5228439506999996 6.5732866689999998 6.6237293873 6.6741721056000003 6.7246148238999996 6.7750575421999999 6.8255002605000001 7.1888139252999999 7.6201589614999996 7.7138529231000001 7.8075468847999998 7.9012408465000004 7.9949348081 8.0886287697999997 8.1823227313999993 8.2760166931000008 8.3697106548000004 8.4634046164000001 8.5570985780999997 8.6507925396999994 8.7444865014000008 8.8381804631000005 8.9318744247000001 9.0255683863999998 9.1192623479999995 9.2129563096999991 9.3066502714000006 9.4003442330000002 9.4179849284999992 9.4349624628999997 9.4519399973000002 9.4689175317000007 9.4858950660999994 9.5028726004999999 9.5094187984000005 9.2174984005000002 8.9174277353000004 8.5531604195999993 8.1888931037999999 7.8246257880999996 7.4699136706000004 7.4756733615000002 7.4814330523999999 7.4871927432999996 7.4929524342000002 7.4987121251 7.5044718159999997 7.5102315070000003 7.5159911979 7.5217508887999998
5.0592057446999998 5.0445802562999997 5.0301168321 5.0156534079000004 5.0011899837999998 4.9861768 4.9708592185000002 4.9555416369999996 4.9402240554999999 4.9249064740000001 4.9095888925000004 4.8942713109999998 4.8789537295000001 4.8636361480000003 4.8483185664999997 4.833000985 4.8176834036000002 4.8023658220999996 4.7870482405999999 4.7717306591000002 4.7564130776000004 4.7410954960999998 4.7257779146000001 4.7104603331000003 4.6951427515999997 4.6798251701 4.6645075886000003 4.6491900070999996 4.7227096462000002 4.8546668314000003 4.9866240166000004 5.1768242507000002 5.3894418697999997 5.6020594890000002 5.8146771080999997 6.0272947273000002 6.1744999149000002 6.2219882611999999 6.2694766074999997 6.3169649538000003 6.3644533001000001 6.4119416463999999 6.3468664946000004 6.2753216535999998 6.2037768127000001 6.1322319717999996 6.0606871308999999 5.9891422899000002 5.9175974489999996 5.8460526080999999 5.7745077672000003 5.7029629262999997 5.6976878503000004 5.8828401184999999 6.0795908970000001 6.2763416755000003 6.4730924539999997 6.5734574835000004 6.4918051200000004 6.4101527564999996 6.3285003928999997 6.2468480293999997 6.1651956658999998 6.1256350147000003 6.1078498774999996 6.0900647403999999 6.0722796033000002 6.0544944662000004 6.0367093290999998 6.0189241920000001 6.0011390548000003 5.9833539176999997 5.9655687806 5.9477836435000002 5.9299985063999996 5.9122133691999998 5.8944282321000001 5.8766430950000004 5.8588579578999997 5.8410728208 5.8232876836000003 5.8055025464999996 5.7877174093999999 5.7699322723000002 5.7521471352000004 5.7343619979999998 5.7165768609000001 5.6987917238000003 5.6810065866999997 5.6632214496 5.6454363124000002 5.6393307028999997 5.6675681300000003 5.6958055570999999 5.7240429842999996 5.7522804114000001 5.7805178384999998 5.8087552656000003 5.8369926927 5.8652301197999996 5.8934675469000002 5.9036662916999996 5.9581420312000004 5.9742373570999998 5.9903326830000001 6.0162589957000003 6.0667017139999997 6.1171444322999999 6.1675871506000002 6.2180298689000004 6.2684725871999998 6.3189153055 6.3693580238000003 6.4198007420999996 6.4702434603999999 6.5206861787000001 6.5711288970000004 6.6215716152999997 6.6720143336 6.7224570519000002 6.9211936658999997 7.3616790383000001 7.5424848971999996 7.6361788588000001 7.7298728204999998 7.8235667822000003 7.9172607438 8.0109547054999997 8.1046486670999993 8.1983426288000008 8.2920365905000004 8.3857305521000001 8.4794245137999997 8.5731184753999994 8.6668124371000008 8.7605063988000005 8.8542003604000001 8.9478943220999998 9.0415882836999995 9.1152127353000001 9.1321902697000006 9.1491678040999993 9.1661453384999998 9.1831228729000003 9.2001004073000008 9.2170779416999995 9.2340554761 9.2510330105000005 9.2680105448999992 9.0111012128999999 8.6468338972000005 8.2825665813999994 7.9182992657 7.5540319498999997 7.5304119301999997 7.5361716211000003 7.541931312 7.5476910028999997 7.5534506938000003 7.5592103847000001 7.5649700756999998 7.5707297666000004 7.5764894575000001
5.0622603876000003 5.0453693382000004 5.0309059139999999 5.0164424898000002 5.0019790655999996 4.9875156414999999 4.9725099908999999 4.9571924094000002 4.9418748279000004 4.9265572463999998 4.9112396649000001 4.8959220834000003 4.8806045018999997 4.8652869204 4.8499693389000003 4.8346517573999996 4.8193341758999999 4.8040165945000002 4.7886990129999996 4.7733814314999998 4.7580638500000001 4.7427462685000004 4.7274286869999997 4.7121111055 4.6967935240000003 4.6814759424999997 4.6661583609999999 4.6508407795000002 4.7448394493999997 4.8767966345999998 5.0087538197999999 5.1836355489999999 5.3962531681000003 5.6088707872999999 5.8214884064000003 6.0341060254999999 6.1513410844000003 6.1988294307 6.2463177769999998 6.2938061233000004 6.3412944696000002 6.3887828159 6.3801064141000001 6.3085615732000004 6.2370167321999999 6.1654718913000002 6.0939270503999996 6.0223822094999999 5.9508373686000002 5.8792925275999997 5.8077476867 5.8017932154 5.8050515753000003 5.8878311896 6.0845819681000002 6.2813327466000004 6.4780835251999997 6.4940352189999997 6.4123828554999998 6.3307304918999998 6.2490781283999999 6.1674257648999999 6.1491691935999997 6.1313840565 6.1135989194000002 6.0958137821999996 6.0780286450999998 6.0602435080000001 6.0424583709000004 6.0246732337999997 6.0068880966 5.9891029595000003 5.9713178223999996 5.9535326852999999 5.9357475482000002 5.9179624110000004 5.9001772738999998 5.8823921368000001 5.8646069997000003 5.8468218625999997 5.8290367254 5.8112515883000002 5.7934664511999996 5.7756813140999999 5.7578961770000001 5.7401110398000004 5.7223259026999997 5.7045407656 5.6867556285000003 5.6689704913999996 5.6511853542999999 5.6334002171000002 5.6170172507 5.6452546777999997 5.6734921049000002 5.7017295319999999 5.7299669591000004 5.7582043862000001 5.7864418132999997 5.8146792404000003 5.8429166674999999 5.8711540945999996 5.8432032312000004 5.8592985570999998 5.8753938829000001 5.9132157870000004 5.9636585052999997 6.0141012236 6.0645439419000002 6.1149866601999996 6.1654293784999998 6.2158720968000001 6.2663148151000003 6.3167575333999997 6.3672002516999999 6.4176429700000002 6.4680856883000004 6.5185284065999998 6.5689711249 6.6194138432000003 6.6698565614999996 7.0940587789 7.3711168711999999 7.4648108328999996 7.5585047946000001 7.6521987561999998 7.7458927179000003 7.8395866795 7.9332806411999996 8.0269746028999993 8.1206685645000007 8.2143625262000004 8.3080564878000001 8.4017504494999997 8.4954444111999994 8.5891383728000008 8.6828323345000005 8.7765262961000001 8.8294180765999997 8.8463956110000002 8.8633731454000007 8.8803506797999994 8.8973282140999999 8.9143057485000003 8.9312832829000008 8.9482608172999996 8.9652383517000001 8.9822158861000005 8.9991934204999993 9.0814280013000008 8.7405073748 8.3762400590000006 8.0119727432999994 7.6477054275 7.5851504989 7.5909101897999998 7.5966698807000004 7.6024295716000001 7.6081892624999998 7.6139489534000004 7.6197086443000002 7.6254683352999999 7.6312280261999996
5.0653150304999999 5.0461584200000003 5.0316949958999997 5.0172315717 5.0027681475000003 4.9883047232999997 4.9738412992000001 4.9588431817999998 4.9435256003000001 4.9282080188000004 4.9128904372999997 4.8975728558 4.8822552743000003 4.8669376927999997 4.8516201112999999 4.8363025298000002 4.8209849482999996 4.8056673668999998 4.7903497854000001 4.7750322039000004 4.7597146223999998 4.7443970409 4.7290794594000003 4.7137618778999997 4.6984442963999999 4.6831267149000002 4.6678091333999996 4.6524915518999999 4.7669692525 4.8989264377000001 5.0308836229000002 5.1904468472999996 5.4030644664 5.6156820854999996 5.8282997047 6.0409173237999996 6.1281822539000004 6.1756706002000001 6.2231589464999999 6.2706472927999997 6.3181356391000003 6.3656239855000001 6.4131123317999998 6.3418014927000002 6.2702566517999996 6.1987118108999999 6.1271669699000002 6.0556221289999996 5.9840772880999999 5.9125324472000003 5.9058985803999997 5.9091569403999999 5.9124153003000002 5.9156736602000004 6.0895730393000003 6.2863238177999996 6.4830745962999998 6.4146129544999999 6.3329605909 6.2513082274 6.1904885095999997 6.1727033725 6.1549182354000003 6.1371330982999996 6.1193479611999999 6.1015628240000002 6.0837776869000004 6.0659925497999998 6.0482074127000001 6.0304222756000003 6.0126371383999997 5.9948520013 5.9770668642000002 5.9592817270999996 5.9414965899999999 5.9237114528000001 5.9059263157000004 5.8881411785999997 5.8703560415 5.8525709044000003 5.8347857672999996 5.8170006300999999 5.7992154930000002 5.7814303559000004 5.7636452187999998 5.7458600817000001 5.7280749445000003 5.7102898073999997 5.6925046703 5.6747195332000002 5.6569343960999996 5.6391492588999999 5.6213641218000001 5.6035789847000004 5.6229412255 5.6511786525999996 5.6794160797000002 5.7076535067999998 5.7358909339000004 5.764128361 5.7923657880999997 5.8206032152000002 5.7385371556999996 5.7443597569999998 5.7604550829000001 5.8101725783999996 5.8606152966999998 5.9110580150000001 5.9615007333000003 6.0119434515999997 6.0623861698999999 6.1128288882000001 6.1632716065000004 6.2137143247999997 6.2641570431 6.3145997614000002 6.3650424796999996 6.4154851979999998 6.4659279163000001 6.5163706346000003 6.5668133528999997 6.8264385194999999 7.1997488453000003 7.2934428068999999 7.3871367685999996 7.4808307303000001 7.5745246918999998 7.6682186536000003 7.7619126152 7.8556065768999996 7.9493005386000002 8.0429945002000007 8.1366884619000004 8.2303824235 8.3240763851999997 8.4177703468999994 8.5114643085000008 8.5436234177999992 8.5606009521999997 8.5775784866000002 8.5945560210000007 8.6115335553999994 8.6285110897999999 8.6454886242000004 8.6624661585999991 8.6794436928999996 8.7082773981999999 8.8313829010999996 8.9544884039999992 9.0458192553999996 8.8341808523999994 8.4699135366 8.1056462209000006 7.7413789051000004 7.6398890676000004 7.6456487585000001 7.6514084493999999 7.6571681402999996 7.6629278312000002 7.6686875220999999 7.6744472129999997 7.6802069040000003 7.6859665949
5.0683696733000003 5.0469475019000001 5.0324840777000004 5.0180206535999998 5.0035572294000001 4.9890938051999996 4.9746303809999999 4.9601669569000002 4.9451763726999998 4.9298587912 4.9145412097000003 4.8992236281999997 4.8839060466999999 4.8685884652000002 4.8532708836999996 4.8379533021999999 4.8226357207000001 4.8073181392000004 4.7920005577999998 4.7766829763 4.7613653948000003 4.7460478132999997 4.7307302318 4.7154126503000002 4.7000950687999996 4.6847774872999999 4.6694599058000001 4.6571418705000003 4.7890990557000004 4.9210562408999996 5.0530134260999997 5.1972581455000002 5.4098757646999998 5.6224933838000002 5.8351110029999997 6.0477286221000002 6.1050234233999996 6.1525117698000003 6.2000001161 6.2474884623999998 6.2949768087000004 6.3424651550000002 6.3899535012999999 6.3750414121999999 6.3034965713000002 6.2319517303999996 6.1604068894999999 6.0888620485000002 6.0173172075999997 6.0100039455000003 6.0132623053999996 6.0165206652999998 6.0197790253000001 6.0230373852000003 6.0945641104000003 6.2913148888999997 6.4168430535000001 6.3351906899000001 6.2535383264000002 6.2140226886000001 6.1962375514000003 6.1784524142999997 6.1606672772 6.1428821401000002 6.1250970029999996 6.1073118657999999 6.0895267287000001 6.0717415916000004 6.0539564544999998 6.0361713174 6.0183861803000003 6.0006010430999996 5.9828159059999999 5.9650307689000002 5.9472456318000004 5.9294604946999998 5.9116753575000001 5.8938902204000003 5.8761050832999997 5.8583199462 5.8405348091000002 5.8227496718999996 5.8049645347999999 5.7871793977000001 5.7693942606000004 5.7516091234999998 5.7338239863 5.7160388492000003 5.6982537120999996 5.6804685749999999 5.6626834379000002 5.6448983007000004 5.6271131635999998 5.6093280265000001 5.5915428894000003 5.6006277732000003 5.6288652002999999 5.6571026273999996 5.6853400545000001 5.7135774815999998 5.7418149087000003 5.7700523359 5.6840733815000002 5.6294209569999998 5.6566866514000003 5.7071293696999996 5.7575720879999999 5.8080148063000001 5.8584575246000004 5.9089002428999997 5.9593429612 6.0097856795000002 6.0602283978000004 6.1106711160999998 6.1611138344 6.2115565527000003 6.2619992709999996 6.3124419892999999 6.3628847076000001 6.4133274259000004 6.4637701441999997 6.5588182599999998 6.9993036325000002 7.1220747810000002 7.2157687426999999 7.3094627042999996 7.4031566660000001 7.4968506275999998 7.5905445893000003 7.684238551 7.7779325125999996 7.8716264743000002 7.9653204358999998 8.0590143976000004 8.1527083593 8.2408512246000001 8.2578287590000006 8.2748062933999993 8.2917838277999998 8.3087613622000003 8.3257388966000008 8.3427164309999995 8.3596939654 8.3766714998000005 8.4386640961000001 8.5617695988999998 8.6848751017999994 8.8079806047000009 8.9310861076000005 9.0102105096000003 8.9029513518000005 8.5635870141999995 8.1993196985000001 7.8350523826999998 7.6946276362999999 7.7003873271999996 7.7061470181000002 7.711906709 7.7176663998999997 7.7234260908000003 7.7291857817 7.7349454726999998 7.7407051636000004
5.0714243161999999 5.0477365837999999 5.0332731596000002 5.0188097353999996 5.0043463113 4.9898828871000003 4.9754194628999997 4.9609560387 4.9464926146000003 4.9315095635999997 4.9161919821 4.9008744006000002 4.8855568190999996 4.8702392375999999 4.8549216561000001 4.8396040746000004 4.8242864930999998 4.8089689116000001 4.7936513301000003 4.7783337486999997 4.7630161672 4.7476985857000003 4.7323810041999996 4.7170634226999999 4.7017458412000002 4.6864282597000004 4.6711106781999998 4.6792716735999997 4.8112288588999998 4.9431860441 5.0751432293000001 5.2071004145000002 5.4166870630000004 5.6293046820999999 5.8419223012000003 6.0343762466999999 6.0818645929999997 6.1293529393000004 6.1768412856000001 6.2243296318999999 6.2718179781999996 6.3193063245000003 6.3667946708000001 6.4082813317999996 6.3367364907999999 6.2651916499000002 6.1936468089999996 6.1221019681 6.1141093104999999 6.1173676705000002 6.1206260304000004 6.1238843902999998 6.1271427502 6.1304011102000002 6.1336594700999996 6.2963059599999998 6.3374207889000003 6.2557684254000003 6.2375568675000004 6.2197717303999998 6.2019865933 6.1842014561000003 6.1664163189999996 6.1486311818999999 6.1308460448000002 6.1130609077000004 6.0952757704999998 6.0774906334000001 6.0597054963000003 6.0419203591999997 6.0241352221 6.0063500849000002 5.9885649477999996 5.9707798106999999 5.9529946736000001 5.9352095365000004 5.9174243992999997 5.8996392622 5.8818541251000003 5.8640689879999996 5.8462838508999999 5.8284987137000002 5.8107135766000004 5.7929284394999998 5.7751433024000001 5.7573581653000003 5.7395730280999997 5.721787891 5.7040027539000002 5.6862176167999996 5.6684324796999999 5.6506473425000001 5.6328622054000004 5.6150770682999998 5.5972919312 5.5795067941000003 5.5783143209999997 5.6065517481000002 5.6347891751999999 5.6630266023000004 5.6912640294000001 5.7181952808999998 5.6296096073999999 5.5410239338 5.5536434428000003 5.6040861610999997 5.6545288793999999 5.7049715977000002 5.7554143160000004 5.8058570342999998 5.8562997526 5.9067424709000003 5.9571851891999996 6.0076279074999999 6.0580706258000001 6.1085133441000004 6.1589560623999997 6.2093987807 6.2598414990000002 6.3102842173000004 6.3607269355999998 6.4111696539 6.7316833730000001 6.9507067549999997 7.0444007167000002 7.1380946783999999 7.2317886400000004 7.3254826017000001 7.4191765632999997 7.5128705250000003 7.6065644867 7.7002584482999996 7.7939524100000002 7.8876463715999998 7.9550565658999997 7.9720341003000001 7.9890116346999998 8.0059891689999994 8.0229667033999998 8.0399442378000003 8.0569217722000008 8.0738993065999995 8.1690507939000003 8.2921562968 8.4152617996999997 8.5383673024999993 8.6614728054000008 8.7845783083000004 8.9076838112000001 8.9746017638000009 8.8673426059999993 8.6572604918000007 8.2929931760999995 7.9287258603000002 7.7493662050000003 7.7551258959 7.7608855867999997 7.7666452777000003 7.7724049686000001 7.7781646594999998 7.7839243504000004 7.7896840413000001 7.7954437322999999
5.0744789591000004 5.0485256656999997 5.0340622415 5.0195988173000003 5.0051353930999998 4.9906719690000001 4.9762085448000004 4.9617451205999998 4.9472816964000002 4.9328182722999996 4.9178427544999996 4.9025251729999999 4.8872075915000002 4.8718900100000004 4.8565724284999998 4.8412548470000001 4.8259372655000004 4.8106196839999997 4.7953021025 4.7799845211000003 4.7646669395999997 4.7493493580999999 4.7340317766000002 4.7187141950999996 4.7033966135999998 4.6880790321000001 4.6727614506000004 4.7014014768000001 4.8333586620000002 4.9653158472000003 5.0972730324000004 5.2292302175999996 5.4234983612000001 5.6361159803999996 5.8487335995 6.0112174162000001 6.0587057624999998 6.1061941087999996 6.1536824551000002 6.2011708014 6.2486591476999997 6.2961474940000004 6.3436358404000002 6.3911241866999999 6.3699764103999996 6.2984315693999999 6.2268867285000002 6.2182146755999996 6.2214730354999999 6.2247313955000001 6.2279897554000003 6.2312481152999997 6.2345064751999999 6.2377648351000001 6.2410231951000004 6.3012970311999998 6.2788761835000004 6.2610910463999998 6.2433059093000001 6.2255207722000003 6.2077356350999997 6.1899504979 6.1721653608000002 6.1543802236999996 6.1365950865999999 6.1188099495000001 6.1010248123000004 6.0832396751999998 6.0654545381 6.0476694010000003 6.0298842638999997 6.0120991266999999 5.9943139896000002 5.9765288525000004 5.9587437153999998 5.9409585783000001 5.9231734411000003 5.9053883039999997 5.8876031669 5.8698180298000002 5.8520328926999996 5.8342477554999999 5.8164626184000001 5.7986774813000004 5.7808923441999998 5.7631072071 5.7453220700000003 5.7275369327999996 5.7097517956999999 5.6919666586000002 5.6741815215000004 5.6563963843999998 5.6386112472000001 5.6208261101000003 5.6030409729999997 5.5852558359 5.5674706988000002 5.5560008687 5.5842382957999996 5.6124757229000002 5.6407131499999998 5.6637315066999996 5.5751458331999997 5.5109917503999997 5.5243081192999997 5.5376244880999996 5.5514856707 5.6019283890000002 5.6523711072999996 5.7028138255999998 5.7532565439000001 5.8036992622000003 5.8541419804999997 5.9045846987999999 5.9550274171000002 6.0054701354000004 6.0559128536999998 6.106355572 6.1567982903000003 6.2072410085999996 6.2576837268999999 6.3081264452000001 6.4640631136 6.7793387291 6.8730326906999997 6.9667266524000002 7.0604206140999999 7.1541145757000004 7.2478085374000001 7.3415024989999997 7.4351964607000003 7.5288904223999999 7.6225843839999996 7.6692619071000001 7.6862394414999997 7.7032169759000002 7.7201945102999998 7.7371720447000003 7.7541495790999999 7.7763319888 7.8994374916999996 8.0225429946000002 8.1456484974999999 8.2687540003999995 8.3918595032999992 8.5149650061000006 8.6380705090000003 8.7611760118999999 8.8842815147999996 8.9389930179999997 8.8317338602 8.7244747024000002 8.3866666537000008 8.0223993378999996 7.8041047736999998 7.8098644646000004 7.8156241555000001 7.8213838463999998 7.8271435372999996 7.8329032282000002 7.8386629190999999 7.8444226099999996 7.8501823010000003
5.0775336019999999 5.0493147475000004 5.0348513233999999 5.0203878992000002 5.0059244749999996 4.9914610507999999 4.9769976267000002 4.9625342024999997 4.9480707783 4.9336073541000003 4.9191439299999997 4.9041759453999996 4.8888583638999998 4.8735407824000001 4.8582232009000004 4.8429056193999998 4.8275880379 4.8122704564000003 4.7969528748999997 4.7816352933999999 4.7663177120000002 4.7510001304999996 4.7356825489999999 4.7203649675000001 4.7050473860000004 4.6897298044999998 4.674412223 4.7235312800000004 4.8554884651999997 4.9874456503999998 5.1194028355999999 5.2513600208 5.4303096594999998 5.6429272787000002 5.8555448977999998 5.9880585857000002 6.0355469319999999 6.0830352782999997 6.1305236246000003 6.1780119710000001 6.2255003172999999 6.2729886635999996 6.3204770099000003 6.3679653562 6.4032163299000002 6.3316714889999997 6.3223200407000002 6.3255784006000004 6.3288367604999998 6.3320951204 6.3353534804000002 6.3386118402999996 6.3276289369000001 6.3135623255000004 6.2994957139999999 6.2856313316000003 6.2755443306999998 6.2590505708000004 6.2425568109 6.2260630509999997 6.2095692911000002 6.1930755311999999 6.1765817712000004 6.1600880113000001 6.1423441284000004 6.1245589912999998 6.1067738541000001 6.0889887170000003 6.0712035798999997 6.0534184428 6.0356333057000002 6.0178481684999996 6.0000630313999999 5.9822778943000001 5.9644927572000004 5.9467076200999998 5.928922483 5.9111373458000003 5.8933522086999997 5.8755670715999999 5.8577819345000002 5.8399967974000004 5.8222116601999998 5.8044265231000001 5.7866413860000003 5.7688562488999997 5.7510711118 5.7332859746000002 5.7155008374999996 5.6977157003999999 5.6799305633000001 5.6621454262000004 5.6443602889999998 5.6265751519 5.6087900148000003 5.5910048776999997 5.5732197405999999 5.5554346034000002 5.5376494663000004 5.5619248434999999 5.5901622705999996 5.6092677325000002 5.5206820590000003 5.5164237525999997 5.5297401214999997 5.5430564902999997 5.5563728591999997 5.5696892280999997 5.5830055969999997 5.5997706169999999 5.6502133353000001 5.7006560536000004 5.7510987718999997 5.8015414902 5.8519842085000002 5.9024269267999996 5.9528696450999998 6.0033123634000001 6.0537550817000003 6.1041977999999997 6.1546405182999999 6.2050832366000002 6.2555259549000004 6.6079707031000003 6.7016646648 6.7953586264999997 6.8890525881000002 6.9827465497999999 7.0764405114000004 7.1701344731000001 7.2638284347999997 7.3575223964000003 7.3834672482999997 7.4004447827000002 7.4174223170999998 7.4343998515000003 7.4513773858999999 7.5067186866000002 7.6298241894999999 7.7529296924000004 7.8760351953000001 7.9991406981999997 8.1222462010999994 8.2453517040000008 8.3684572069000005 8.4915627098000002 8.6146682125999998 8.7377737154999995 8.8608792183999991 8.9033842722000003 8.7961251144000006 8.6888659566000008 8.4803401313000002 8.1160728155000008 7.8588433424000002 7.8646030332999999 7.8703627241999996 7.8761224151000002 7.8818821059999999 7.8876417968999997 7.8934014878000003 7.8991611787 7.9049208695999997
5.0805882449000004 5.0501038294000002 5.0356404051999997 5.0211769811 5.0067135569000003 4.9922501326999997 4.9777867085 4.9633232844000004 4.9488598601999998 4.9343964360000001 4.9199330118000004 4.9054695876999999 4.8905091363000004 4.8751915547999998 4.8598739733 4.8445563918000003 4.8292388102999997 4.8139212288 4.7986036473000002 4.7832860657999996 4.7679684843999999 4.7526509029000001 4.7373333214000004 4.7220157398999998 4.7066981584000001 4.6913805769000003 4.6760629953999997 4.7456610830999999 4.8776182684 5.0095754536000001 5.1415326388000002 5.2734898240000003 5.4371209578000004 5.6497385768999999 5.8623561961000004 5.9648997553000003 6.0123881016 6.0598764478999998 6.1073647941999996 6.1548531405000002 6.2023414868 6.2498298330999997 6.2973181794000004 6.3448065257000001 6.3922948719999999 6.3963453285999998 6.3822787172000002 6.3682121056999996 6.3541454943 6.3400788828000003 6.3260122713999998 6.3119456599000001 6.2978790484999996 6.2838124369999999 6.2697458255000003 6.256049129 6.248135918 6.240222707 6.2266631880999999 6.2101694282000004 6.1936756683 6.1771819083999997 6.1606881485000002 6.1441943885999999 6.1277006286000004 6.1112068687000001 6.0947131087999997 6.0782193489000003 6.0617255889999999 6.0452318290999996 6.0287380692000001 6.0122443092999998 5.9957505494000003 5.9792567894999999 5.9627630295999996 5.9462692696000001 5.9297755096999998 5.9132817498000003 5.8967879899 5.8802942299999996 5.8635309762999999 5.8457458392000001 5.8279607020000004 5.8101755648999998 5.7923904278 5.7746052907000003 5.7568201535999997 5.7390350163999999 5.7212498793000002 5.7034647422000004 5.6856796050999998 5.6678944680000001 5.6501093308000003 5.6323241936999997 5.6145390566 5.5967539195000002 5.5789687823999996 5.5611836452999999 5.5433985081000001 5.5256133710000004 5.5396113912000002 5.5548039584 5.5085393858999998 5.5218557547999998 5.5351721236999998 5.5484884924999998 5.5618048613999997 5.5751212302999997 5.5884375991999997 5.6017539680999997 5.6150703368999997 5.6283867057999997 5.6480555631999998 5.6984982815 5.7489409998000003 5.7993837180999996 5.8498264363999999 5.9002691547000001 5.9507118730000004 6.0011545912999997 6.0515973096 6.1020400279000002 6.1524827461999996 6.3693079672000001 6.5302966388000003 6.6239906005 6.7176845621999997 6.8113785238000002 6.9050724854999999 6.9987664471000004 7.0806950551999996 7.0976725895000001 7.1146501238999997 7.1316276583000002 7.1486051926999998 7.2371053844000004 7.3602108873000001 7.4833163901999997 7.6064218931000003 7.7295273959999999 7.8526328988999996 7.9757384018000002 8.0988439047000007 8.2219494076000004 8.3450549105 8.4681604133999997 8.5912659161999994 8.7143714191000008 8.8374769220000005 8.8677755264000009 8.7605163685999994 8.6532572107999997 8.5459980529999999 8.2097462931000003 7.9135819110999996 7.9193416020000003 7.9251012929 7.9308609837999997 7.9366206747000003 7.9423803656 7.9481400564999998 7.9538997474000004 7.9596594383000001
5.0836428878 5.0508929113000001 5.0364294871000004 5.0219660628999998 5.0075026388000001 4.9930392146000004 4.9785757903999999 4.9641123662000002 4.9496489420999996 4.9351855178999999 4.9207220937000002 4.9062586694999997 4.8917952454 4.8768423272000003 4.8615247456999997 4.8462071642 4.8308895827000002 4.8155720011999996 4.8002544196999999 4.7849368382000002 4.7696192567000004 4.7543016752999998 4.7389840938000001 4.7236665123000003 4.7083489307999997 4.6930313493 4.6777137678000003 4.7677908863000003 4.8997480715000004 5.0317052566999996 5.1636624418999997 5.2956196270999998 5.4439322561000001 5.6565498751999996 5.8691674944000001 5.9417409248000004 5.9892292711000001 6.0367176173999999 6.0842059636999997 6.1316943100000003 6.1791826563000001 6.2266710025999998 6.2741593488999996 6.3071251694999999 6.3187201827999999 6.3665954402000002 6.3525288286999997 6.3384622172 6.3243956058000004 6.3103289942999998 6.2962623829000002 6.2821957713999996 6.26812916 6.2540625485000003 6.2399959370999998 6.2264669264999997 6.2185537153999997 6.2106405043999997 6.2027272932999997 6.1942758054000002 6.1777820454999999 6.1612882856000004 6.1447945257000001 6.1283007657999997 6.1118070059000003 6.0953132458999999 6.0788194860000004 6.0623257261000001 6.0458319661999997 6.0293382063000003 6.0128444463999999 5.9963506864999996 5.9798569266000001 5.9633631666999998 5.9468694068000003 5.9303756469 5.9138818869999996 5.8973881270000001 5.8808943670999998 5.8644006072000003 5.8479068473 5.8314130873999996 5.8149193275000002 5.7984255675999998 5.7819318077000004 5.7654380478 5.7489442878999997 5.7324505280000002 5.7159567680999999 5.6994630081000004 5.6829692482 5.6664754882999997 5.6499817284000002 5.6334879684999999 5.6169942086000004 5.6005004487000001 5.5840066887999997 5.5669326871000004 5.5491475498999998 5.5313624128000001 5.5135772757000003 5.5006550191999999 5.5139713880999999 5.5272877569999999 5.5406041258999998 5.5539204946999998 5.5672368635999998 5.5805532324999998 5.5938696013999998 5.6071859702999998 5.6205023390999997 5.6338187079999997 5.6471350768999997 5.6604514457999997 5.6737678146999997 5.6963405094999997 5.7467832277999999 5.7972259461000002 5.8476686644000004 5.8981113826999998 5.948554101 5.9989968193000003 6.0494395375999996 6.1016877078 6.3589286128999998 6.4526225746000003 6.5463165362 6.6400104978999996 6.7337044595000002 6.7949003964000001 6.8118779307999997 6.8288554652000002 6.8458329995999998 6.9674920822999997 7.0905975851000003 7.2137030879999999 7.3368085908999996 7.4599140938000001 7.5830195966999998 7.7061250996000004 7.8292306025 7.9523361053999997 8.0754416083000002 8.1985471111999999 8.3216526140999996 8.4447581169999992 8.5678636198000007 8.6909691227000003 8.8140746256 8.8321667805999997 8.7249076228 8.6176484650000003 8.5103893072000005 8.3034197706999997 7.9683204798 7.9740801706999997 7.9798398616000004 7.9855995525000001 7.9913592433999998 7.9971189343000004 8.0028786251999993 8.0086383161000008 8.0143980070000005
5.0866975307000004 5.0516819931999999 5.0372185690000002 5.0227551447999996 5.0082917205999999 4.9938282965000003 4.9793648722999997 4.9649014481 4.9504380239000003 4.9359745997999998 4.9215111756000001 4.9070477514000004 4.8925843271999998 4.8781209031000001 4.8631755181000003 4.8478579365999996 4.8325403550999999 4.8172227736000002 4.8019051921000004 4.7865876105999998 4.7712700291000001 4.7559524477000004 4.7406348661999997 4.7253172847 4.7099997032000003 4.6946821216999997 4.6793645401999999 4.7899206894999997 4.9218778746999998 5.0538350598999999 5.1857922451 5.3177494303000001 5.4507435543999998 5.6633611735000002 5.8710937479999998 5.9185820942999996 5.9660704406000002 6.0135587869 6.0610471331999998 6.1085354795000004 6.1560238259000002 6.2035121722 6.2180538529999998 6.2296488662999998 6.2412438795999998 6.3368455516999997 6.3227789402000001 6.3087123288000004 6.2946457172999999 6.2805791059000002 6.2665124943999997 6.252445883 6.2383792715000004 6.2243126600999998 6.2102460486000002 6.1968847239000002 6.1889715128000002 6.1810583018000003 6.1731450908000003 6.1652318797000003 6.1573186687000003 6.1453946628000002 6.1289009028999999 6.1124071430000004 6.0959133831000001 6.0794196231999997 6.0629258633000003 6.0464321032999999 6.0299383433999996 6.0134445835000001 5.9969508235999998 5.9804570637000003 5.9639633037999999 5.9474695438999996 5.9309757840000001 5.9144820240999998 5.8979882642000003 5.8814945043 5.8650007443999996 5.8485069844000002 5.8320132244999998 5.8155194646000004 5.7990257047 5.7825319447999997 5.7660381849000002 5.7495444249999998 5.7330506651000004 5.7165569052 5.7000631452999997 5.6835693854000002 5.6670756253999999 5.6505818655000004 5.6340881056000001 5.6175943456999997 5.6011005858000003 5.5846068258999999 5.5681130660000004 5.5516193061000001 5.5351255461999997 5.5186317863000003 5.5021380263999999 5.4899176139000003 5.4914844735999999 5.5108678270000002 5.5302511802999996 5.5496345335999999 5.5690178870000002 5.5859852346999999 5.5993016035999998 5.6126179724999998 5.6259343412999998 5.6392507101999998 5.6525670790999998 5.6658834479999998 5.6791998168999998 5.6925161856999997 5.7058325545999997 5.7191489234999997 5.7446254556999996 5.7950681739999998 5.8455108923000001 5.8959536106000003 5.9463963288999997 5.9968390471999999 6.1875605869000001 6.2812545485999998 6.3749485103000003 6.4686424719 6.5091057375999997 6.5260832720000002 6.5747732772000003 6.6978787800999999 6.8209842829999996 6.9440897859000001 7.0671952886999998 7.1903007916000004 7.3134062945 7.4365117973999997 7.5596173003000002 7.6827228031999999 7.8058283060999996 7.9289338090000001 8.0520393118999998 8.1751448147999994 8.2982503177000009 8.4213558206000005 8.5444613235000002 8.6675668262999999 8.7906723291999995 8.7965580347000003 8.6892988769000006 8.5820397191000009 8.4747805612999993 8.3675214034999996 8.0328259325999998 8.0288187394000001 8.0345784302999999 8.0403381211999996 8.0460978120999993 8.0518575030000008 8.0576171939000005 8.0633768848000003 8.0691365757
5.0897521736 5.0524710749999997 5.0380076509 5.0235442267000003 5.0090808024999998 4.9946173783000001 4.9801539542000004 4.9656905299999998 4.9512271058000001 4.9367636815999996 4.9223002574999999 4.9078368333000002 4.8933734090999996 4.8789099848999999 4.8644465608000003 4.8495087090000002 4.8341911274999996 4.8188735459999998 4.8035559645000001 4.7882383830000004 4.7729208014999998 4.75760322 4.7422856386000003 4.7269680570999997 4.7116504755999999 4.6963328941000002 4.6810153125999996 4.8120504926000001 4.9440076778000002 5.0759648631000003 5.2079220483000004 5.3398792334999996 5.4718364186999997 5.6701724717999999 5.8479349174999999 5.8954232637999997 5.9429116102000004 5.9903999565000001 6.0378883027999999 6.0853766490999996 6.1173875231999997 6.1289825364999997 6.1405775497999997 6.1521725630999997 6.1637675764999997 6.2270365970999997 6.2930290517999996 6.2789624402999999 6.2648958289000003 6.2508292173999997 6.2367626060000001 6.2226959945000004 6.2086293829999999 6.1945627716000002 6.1804961600999997 6.1673025212999999 6.1593893102999999 6.1514760991999999 6.1435628882 6.1356496771 6.1277364661 6.1198232551 6.111910044 6.0965135202000003 6.0800197602999999 6.0635260003999996 6.0470322405000001 6.0305384805999998 6.0140447207000003 5.9975509606999999 5.9810572007999996 5.9645634409000001 5.9480696809999998 5.9315759211000003 5.9150821612 5.8985884012999996 5.8820946414000002 5.8656008814999998 5.8491071216000003 5.8326133617 5.8161196016999996 5.7996258418000002 5.7831320818999998 5.7666383220000004 5.7501445621 5.7336508021999997 5.7171570423000002 5.7006632823999999 5.6841695225000004 5.6676757626000001 5.6511820026999997 5.6346882428000002 5.6181944827999999 5.6017007229000004 5.5852069630000001 5.5687132030999997 5.5522194432000003 5.5357256832999999 5.5192319233999996 5.5027381635000001 5.4862444035999998 5.4771096427000003 5.4734853074999998 5.4698609723000002 5.4887300026999997 5.508113356 5.5274967094000003 5.5468800626999997 5.5662634161 5.5856467694000003 5.6050301227999997 5.6244134761 5.6437968295000003 5.6631801827999997 5.6825635362 5.6979481878999998 5.7112645567999998 5.7245809256999998 5.7378972945999998 5.7512136633999997 5.7645300322999997 5.7929104020000004 5.8433531202999998 5.8937958386 6.0069325613000002 6.1098865227000001 6.2035804842999998 6.2233110788000001 6.3051599749999996 6.4282654779000001 6.5513709807999998 6.6744764837000004 6.7975819866 6.9206874894999997 7.0437929924000002 7.1668984951999999 7.2900039981000004 7.4131095010000001 7.5362150038999998 7.6593205068000003 7.7824260097 7.9055315125999996 8.0286370154999993 8.1517425184000007 8.2748480213000004 8.3979535242000001 8.5210590270999997 8.6441645298999994 8.7672700328000008 8.7609492888999991 8.6536901310999994 8.5464309732999997 8.4391718155 8.3319126577000002 8.1264994101999992 8.0835573080999996 8.0893169989999993 8.0950766899000008 8.1008363808000006 8.1065960717000003 8.1123557626 8.1181154534999997 8.1238751443999995
5.0928068164999996 5.0532601569000004 5.0387967326999998 5.0243333086000002 5.0098698843999996 4.9954064601999999 4.9809430360000002 4.9664796118999996 4.9520161877 4.9375527635000003 4.9230893392999997 4.9086259152 4.8941624910000003 4.8796990667999998 4.8652356426000001 4.8507722185000004 4.8358418999000001 4.8205243184000004 4.8052067368999998 4.7898891554 4.7745715739000003 4.7592539923999997 4.743936411 4.7286188295000002 4.7133012479999996 4.6979836664999999 4.7022231106000003 4.8341802958000004 4.9661374809999996 5.0980946661999997 5.2300518513999998 5.3620090365999999 5.4939662218 5.6769837700999997 5.8247760871000001 5.8722644333999998 5.9197527796999996 5.9672411260000002 6.0147294723 6.0283162066999996 6.0399112199999996 6.0515062332999996 6.0631012465999996 6.0746962599999996 6.0862912732999996 6.1123154730999998 6.2632791633 6.2492125518000003 6.2351459403999998 6.2210793289000001 6.2070127174999996 6.192946106 6.1788794946000003 6.1648128830999998 6.1507462717000001 6.1377203186999996 6.1298071076999996 6.1218938966999996 6.1139806855999996 6.1060674745999997 6.0981542634999997 6.0902410524999997 6.0823278413999997 6.0744146303999997 6.0641261374999997 6.0476323776000003 6.0311386176999999 6.0146448577999996 5.9981510979000001 5.9816573379999998 5.9651635780000003 5.9486698181 5.9321760581999996 5.9156822983000001 5.8991885383999998 5.8826947785000003 5.8662010186 5.8497072586999996 5.8332134988000002 5.8167197388999998 5.8002259790000004 5.7837322191 5.7672384590999997 5.7507446992000002 5.7342509392999998 5.7177571794000004 5.7012634195 5.6847696595999997 5.6682758997000002 5.6517821397999999 5.6352883799000004 5.6187946200000001 5.6023008600999997 5.5858071002000003 5.5693133401999999 5.5528195802999996 5.5363258204000001 5.5198320604999997 5.5033383006000003 5.4868445406999999 5.4703507807999996 5.4643016715000003 5.4606773362999999 5.4570530011000002 5.4534286658999997 5.4665921784 5.4859755318000003 5.5053588850999997 5.5247422385 5.5441255918000003 5.5635089451999997 5.5828922985 5.6022756519000003 5.6216590051999997 5.6410423586 5.6604257119000003 5.6798090651999997 5.6991924186 5.7185757719000003 5.7379591252999997 5.7573424786 5.7767258320000003 5.7961091852999997 5.8099111411999997 5.8411953482000003 5.9205388857000001 6.0355466727999998 6.1586521757000003 6.2817576786 6.4048631814999997 6.5279686844000002 6.6510741872999999 6.7741796902000004 6.8972851931000001 7.0203906959999998 7.1434961988000003 7.2666017017 7.3897072045999996 7.5128127075000002 7.6359182103999999 7.7590237133000004 7.8821292162000001 8.0052347191000006 8.1283402220000003 8.2514457248999999 8.3745512277999996 8.4976567306999993 8.6207622335000007 8.7438677364000004 8.7253405430999997 8.6180813853 8.5108222275000003 8.4035630697000006 8.2963039119000008 8.1890447540999993 8.1382958768000009 8.1440555677000006 8.1498152586000003 8.1500000000000004 8.1500000000000004 8.1500000000000004 8.1500000000000004 8.1500000000000004
5.0958614594 5.0540492388000002 5.0395858145999997 5.0251223904 5.0106589663000003 4.9961955420999997 4.9817321179 4.9672686937000003 4.9528052695999998 4.9383418454000001 4.9238784212000004 4.9094149969999998 4.8949515729000002 4.8804881486999996 4.8660247244999999 4.8515613003000002 4.8370978761999996 4.8221750908000001 4.8068575093000003 4.7915399277999997 4.7762223463 4.7609047648000002 4.7455871832999996 4.7302696018999999 4.7149520204000002 4.6996344389000004 4.7243529137999998 4.8563100989999999 4.9882672842 5.1202244694000001 5.2521816546000002 5.3841388398000003 5.5160960250000004 5.6837950683000003 5.8016172566000002 5.8491056028999999 5.8965939491999997 5.9276498769000003 5.9392448902000003 5.9508399035000004 5.9624349168000004 5.9740299302000004 5.9856249435000004 5.9972199568000004 6.0088149701000004 6.0204099834000004 6.2335292748000004 6.2194626633999999 6.2053960519000002 6.1913294404999997 6.177262829 6.1631962176000004 6.1491296060999998 6.1350629947000002 6.1209963831999996 6.1081381162000001 6.1002249051000002 6.0923116941000002 6.0843984830000002 6.0764852720000002 6.0685720610000002 6.0606588499000003 6.0527456389000003 6.0448324278000003 6.0369192168000003 6.0290060057000003 6.0152449948999998 5.9987512350000003 5.9822574750999999 5.9657637151999996 5.9492699553000001 5.9327761953999998 5.9162824354000003 5.8997886755 5.8832949155999996 5.8668011557000002 5.8503073957999998 5.8338136359000003 5.817319876 5.8008261160999997 5.7843323562000002 5.7678385962999998 5.7513448364000004 5.7348510765 5.7183573164999997 5.7018635566000002 5.6853697966999999 5.6688760368000004 5.6523822769000001 5.6358885169999997 5.6193947571000002 5.6029009971999999 5.5864072373000004 5.5699134774000001 5.5534197174999997 5.5369259576000003 5.5204321975999999 5.5039384376999996 5.4874446778000001 5.4709509178999998 5.4551180355 5.4514937003000004 5.4478693650999999 5.4442450299000003 5.4406206945999998 5.4369963594000001 5.4444543542000003 5.4638377074999998 5.4832210609000001 5.5026044142000003 5.5219877675999998 5.5413711209000001 5.5607544743000004 5.5801378275999998 5.5995211809000001 5.6189045343000004 5.6382878875999998 5.6576712410000001 5.6770545943000004 5.6964379476999998 5.7158213010000001 5.7352046544000004 5.7545880076999998 5.7739713611000001 5.7933547144000004 5.9288567926000004 6.0121443764000002 6.1352498792999999 6.2583553822000004 6.3814608851000001 6.5045663879999998 6.6276718909000003 6.7507773938 6.8738828966999996 6.9969883996000002 7.1200939023999998 7.2431994053000004 7.3663049082000001 7.4894104110999997 7.6125159140000003 7.7356214168999999 7.8587269197999996 7.9818324227000002 8.1049379255999998 8.2280434284999995 8.3511489313999991 8.4742544343000006 8.5973599372000002 8.7204654399999999 8.6897317973000003 8.5824726395000006 8.4752134817000009 8.3679543238999994 8.2606951660999997 8.1229954939999995 8.1412362372999993 8.1500000000000004 8.1500000000000004 8.1500000000000004 8.1500000000000004 8.1500000000000004 8.1500000000000004 8.1500000000000004
5.0989161022999996 5.0548383207000001 5.0403748965000004 5.0259114722999998 5.0114480481000001 4.9969846240000004 4.9825211997999999 4.9680577756000002 4.9535943513999996 4.9391309272999999 4.9246675031000002 4.9102040788999997 4.8957406547 4.8812772306000003 4.8668138063999997 4.8523503822 4.8378869580000003 4.8234235338999998 4.8085082817 4.7931907002000003 4.7778731186999996 4.7625555371999999 4.7472379557000002 4.7319203741999996 4.7166027927999998 4.7012852113000001 4.7464827169000001 4.8784399021000002 5.0103970873000003 5.1423542726000004 5.2743114577999997 5.4062686429999998 5.5382258281999999 5.6906063666 5.7784584261000003 5.8259467724 5.8385785604000002 5.8501735737000002 5.8617685870000003 5.8733636003000003 5.8849586137000003 5.8965536270000003 5.9081486403000003 5.9197436536000003 5.9313386669000003 5.9429336802000003 6.1378731520000001 6.1897127749000003 6.1756461634999997 6.1615795520000001 6.1475129405000004 6.1334463290999999 6.1193797176000002 6.1053131061999997 6.0912464947 6.0785559135999998 6.0706427024999998 6.0627294914999998 6.0548162804999999 6.0469030693999999 6.0389898583999999 6.0310766472999999 6.0231634363 6.0152502252 6.0073370142 5.9994238032 5.9915105921 5.9828576122000001 5.9663638522999998 5.9498700924000003 5.9333763325 5.9168825725999996 5.9003888127000002 5.8838950527999998 5.8674012928000003 5.8509075329 5.8344137729999996 5.8179200131000002 5.8014262531999998 5.7849324933000004 5.7684387334 5.7519449734999997 5.7354512136000002 5.7189574536999999 5.7024636938000004 5.6859699339000001 5.6694761738999997 5.6529824140000002 5.6364886540999999 5.6199948942000004 5.6035011343000001 5.5870073743999997 5.5705136145000003 5.5540198545999999 5.5375260946999996 5.5210323348000001 5.5045385748999998 5.4880448149000003 5.4715510549999999 5.4550572950999996 5.4423100643 5.4386857291000004 5.4350613938999999 5.4314370586000003 5.4278127233999998 5.4241883882000002 5.4205640529999997 5.4223165298999998 5.4416998833000001 5.4610832366000004 5.4804665899999998 5.4998499433000001 5.5192332967000004 5.5386166499999998 5.5580000033000001 5.5773833567000004 5.5967667099999998 5.6161500634000001 5.6355334167000004 5.6549167700999998 5.6743001234000001 5.6936834768000004 5.7130668300999998 5.7324501835000001 5.7987876754999998 5.9753746805999999 6.0797610324000004 6.1592285301 6.2386960276999996 6.3580585886999996 6.4811640916000002 6.6042695944999998 6.7273750974000004 6.8504806003000001 6.9735861031999997 7.0966916061000003 7.2197971088999999 7.3429026117999996 7.4660081147000001 7.5891136175999998 7.7122191205000004 7.8353246234 7.9584301262999997 8.0815356291999993 8.2046411321000008 8.3277466350000005 8.4508521379000001 8.5739576407999998 8.6970631435999994 8.6541230514999992 8.5468638936999994 8.4396047358999997 8.3323455781 8.2250864203000003 8.0917925125999997 8.1100332558999995 8.1282739991999993 8.1465147425000008 8.1500000000000004 8.1500000000000004 8.1500000000000004 8.1500000000000004 8.1500000000000004
5.1019707452 5.0556274024999999 5.0411639784000002 5.0267005541999996 5.0122371299999999 4.9977737058000002 4.9833102816999997 4.9688468575 4.9543834333000003 4.9399200090999997 4.9254565850000001 4.9109931608000004 4.8965297365999998 4.8820663124000001 4.8676028883000004 4.8531394640999999 4.8386760399000002 4.8242126156999996 4.8097491915999999 4.7948414725999999 4.7795238911000002 4.7642063095999996 4.7488887280999998 4.7335711466000001 4.7182535652000004 4.7029359836999998 4.7686125200999996 4.9005697052999997 5.0325268904999998 5.1644840756999999 5.2964412609 5.4283984461000001 5.5603556313000002 5.6974176648999997 5.7379122306000001 5.7495072439000001 5.7611022572000001 5.7726972705000001 5.7842922838000002 5.7958872972000002 5.8074823105000002 5.8190773238000002 5.8306723371000002 5.8422673504000002 5.8538623637000002 5.8654573770000002 6.0231520280000002 6.1599628863999998 6.1458962750000001 6.1318296634999996 6.1177630520999999 6.1036964406000003 6.0896298291999997 6.0755632177000001 6.0614966063000004 6.0489737110000004 6.0410605000000004 6.0331472889000004 6.0252340779000004 6.0173208667999996 6.0094076557999996 6.0014944447999996 5.9935812336999996 5.9856680226999996 5.9777548115999997 5.9698416005999997 5.9619283894999997 5.9540151784999997 5.9461019674999998 5.9339764696000001 5.9174827096999998 5.9009889498000003 5.8844951899 5.8680014299999996 5.8515076701000002 5.8350139101999998 5.8185201502000004 5.8020263903 5.7855326303999997 5.7690388705000002 5.7525451105999998 5.7360513507000004 5.7195575908 5.7030638308999997 5.6865700710000002 5.6700763110999999 5.6535825512000004 5.6370887912000001 5.6205950312999997 5.6041012714000003 5.5876075114999999 5.5711137516000004 5.5546199917000001 5.5381262317999997 5.5216324719000003 5.5051387119999999 5.4886449520999996 5.4721511922000001 5.4556574322999998 5.4391636723000003 5.4295020931 5.4258777578000004 5.4222534225999999 5.4186290874000003 5.4150047521999998 5.4113804170000002 5.4077560817999997 5.4041317466000001 5.4005074113999996 5.4195620590000004 5.4389454123999998 5.4583287657000001 5.4777121190000004 5.4970954723999998 5.5164788257000001 5.5358621790999996 5.5552455323999999 5.5746288858000002 5.5940122390999996 5.6133955924999999 5.6327789458000002 5.6521622991999996 5.6715456524999999 5.6909290059000002 5.8206011876000003 5.9971881928000004 6.1511977747 6.2306652722999996 6.3101327699 6.3896002674999997 6.4690677651000001 6.5808672981000003 6.7039728009999999 6.8270783038999996 6.9501838068000001 7.0732893096999998 7.1963948125000003 7.3195003154 7.4426058182999997 7.5657113212000002 7.6888168240999999 7.8119223270000004 7.9350278299000001 8.0581333328000007 8.1812388357000003 8.3043443386 8.4274498414999996 8.5505553443999993 8.6736608472000007 8.6185143056999998 8.5112551479 8.4039959901000003 8.2967368323000006 8.0423487879 8.0605895311999998 8.0788302744999996 8.0970710177999994 8.1153117610999992 8.1335525044000008 8.1500000000000004 8.1500000000000004 8.1500000000000004 8.1500000000000004
5.1050253880999996 5.0581519072000001 5.0419530602 5.0274896361000003 5.0130262118999998 4.9985627877000001 4.9840993635000004 4.9696359393999998 4.9551725152000001 4.9407090910000004 4.9262456667999999 4.9117822427000002 4.8973188184999996 4.8828553942999999 4.8683919701000002 4.8539285459999997 4.8394651218 4.8250016976000003 4.8105382733999997 4.7960748493000001 4.7811746634999999 4.7658570820000001 4.7505395005000004 4.7352219189999998 4.7199043375 4.7045867561000003 4.7907423232999999 4.9226995085 5.0546566937000001 5.1866138789000003 5.3185710641000004 5.4505282492999996 5.5824854344999997 5.6330057570000003 5.6604359274 5.6720309407 5.683625954 5.6952209674000001 5.7068159807000001 5.7184109940000001 5.7300060073000001 5.7416010206000001 5.7531960339000001 5.7647910472000001 5.7763860605000001 5.7879810738000002 5.9084309040000003 6.1302129980000002 6.1161463864999996 6.1020797751 6.0880131636000003 6.0739465521999998 6.0598799407000001 6.0458133291999996 6.0317467177999999 6.0193915084 6.0114782974000001 6.0035650863000001 5.9956518753000001 5.9877386643000001 5.9798254532000001 5.9719122422000002 5.9639990311000002 5.9560858201000002 5.9481726091000002 5.9402593980000002 5.9323461870000003 5.9244329759000003 5.9165197649000003 5.9086065538000003 5.9006933428000004 5.8850953270000002 5.8686015670999998 5.8521078072000003 5.8356140473 5.8191202873999996 5.8026265275000002 5.7861327674999998 5.7696390076000004 5.7531452477 5.7366514877999997 5.7201577279000002 5.7036639679999999 5.6871702081000004 5.6706764482000001 5.6541826882999997 5.6376889284000002 5.6211951684999999 5.6047014086000004 5.5882076486000001 5.5717138886999997 5.5552201288000003 5.5387263688999999 5.5222326089999996 5.5057388491000001 5.4892450891999998 5.4727513293000003 5.4562575694 5.4397638094999996 5.4232700496000001 5.4166941218 5.4130697866000004 5.4094454513999999 5.4058211162000003 5.4021967809999998 5.3985724458000002 5.3949481105999997 5.3913237754000001 5.3876994400999996 5.3840751049 5.3974242347999999 5.4168075881000002 5.4361909413999996 5.4555742947999999 5.4749576481000002 5.4943410014999996 5.5137243547999999 5.5331077082000002 5.5524910614999996 5.5718744148999999 5.5912577682000002 5.6106411215999996 5.6300244748999999 5.6658276945999999 5.8424146997999999 6.019001705 6.1955887101 6.3021020145 6.3815695121999996 6.4610370098000001 6.5405045073999997 6.6199720050000002 6.6994395025999998 6.8036760075 6.9267815103999997 7.0498870133000002 7.1729925160999999 7.2960980190000004 7.4192035219000001 7.5423090247999998 7.6654145277000003 7.7885200306 7.9116255334999996 8.0347310364000002 8.1578365392999999 8.2809420421999995 8.4040475450999992 8.5271530480000006 8.6502585509000003 8.5829055598000004 8.4756464021000006 8.3683872442999991 8.2611280864999994 8.0111458065000001 8.0293865497999999 8.0476272930999997 8.0658680363999995 8.0841087796999993 8.1023495230000009 8.1205902663000007 8.1388310096000005 8.1500000000000004 8.1500000000000004
5.1080800310000001 5.0612065500999996 5.0427421420999998 5.0282787179000001 5.0138152937999996 4.9993518695999999 4.9848884454000002 4.9704250211999996 4.9559615970999999 4.9414981729000003 4.9270347486999997 4.9125713245 4.8981079004000003 4.8836444761999998 4.8691810520000001 4.8547176278000004 4.8402542036999998 4.8257907795000001 4.8113273553000004 4.7968639310999999 4.7824005070000002 4.7675078543999998 4.7521902729000001 4.7368726914000003 4.7215551098999997 4.7062375285 4.8128721264000003 4.9448293116000004 5.0767864967999996 5.2087436820999997 5.3407008672999998 5.4363793640000004 5.4839947675999996 5.5316101712999997 5.5792255748999997 5.5945546374999999 5.6061496508999999 5.6177446642 5.6293396775 5.6409346908 5.6525297041 5.6641247174 5.6757197307 5.687314744 5.6989097574000001 5.7105047707000001 5.7937097799000004 6.0487097069000004 6.086396498 6.0723298866000004 6.0582632750999998 6.0441966637000002 6.0301300521999996 6.0160634408 6.0019968293000003 5.9898093058999997 5.9818960947999997 5.9739828837999998 5.9660696726999998 5.9581564616999998 5.9502432505999998 5.9423300395999998 5.9344168285999999 5.9265036174999999 5.9185904064999999 5.9106771953999999 5.9027639843999999 5.8948507734 5.8869375623 5.8790243513 5.8711111402 5.8631979292 5.8527079442999996 5.8362141844000002 5.8197204244999998 5.8032266646000004 5.7867329047 5.7702391447999997 5.7537453849000002 5.7372516248999998 5.7207578650000004 5.7042641051 5.6877703451999997 5.6712765853000002 5.6547828253999999 5.6382890655000004 5.6217953056000001 5.6053015456999997 5.5888077858000003 5.5723140258999999 5.5558202659999996 5.5393265060000001 5.5228327460999997 5.5063389862000003 5.4898452262999999 5.4733514663999996 5.4568577065000001 5.4403639465999998 5.4238701867000003 5.4075104857999996 5.4038861506 5.4002618154000004 5.3966374801999999 5.3930131450000003 5.3893888097999998 5.3857644746000002 5.3821401393999997 5.3785158041000001 5.3748914688999996 5.3712671337 5.3676427985000004 5.3752864105000002 5.3946697637999996 5.4140531171999999 5.4334364705000002 5.4528198238999996 5.4722031771999999 5.4915865306000002 5.5109698838999996 5.5303532372999999 5.5497365906000002 5.5691199439999997 5.5885032973 5.6876412068000004 5.8642282120000004 6.0408152170999996 6.2174022222999996 6.3735387568000004 6.4530062544 6.5324737519999996 6.6119412496000001 6.6914087471999997 6.7708762449000002 6.8503437424999998 6.9298112401000003 7.0264847168999998 7.1495902198000003 7.2726957226 7.3958012254999996 7.5189067284000002 7.6420122312999998 7.7651177342000004 7.8882232371000001 8.0113287399999997 8.1344342428999994 8.2575397458000008 8.3806452487000005 8.5037507516000002 8.6268562544999998 8.5472968139999992 8.4400376561999995 8.3327784983999997 7.9617020818000004 7.9799428251000002 7.9981835684 8.0164243116999998 8.0346650549999996 8.0529057982999994 8.0711465415999992 8.0893872849000008 8.1076280282000006 8.1258687715000004 8.1441095148000002
5.1111346738999996 5.0642611930000001 5.0435312239999996 5.0290677998 5.0146043756000003 5.0001409514999997 4.9856775273 4.9712141031000003 4.9567506788999998 4.9422872548000001 4.9278238306000004 4.9133604063999998 4.8988969822000001 4.8844335580999996 4.8699701338999999 4.8555067097000002 4.8410432854999996 4.8265798613999999 4.8121164372000003 4.7976530129999997 4.7831895888 4.7687261647000003 4.7538410452999997 4.7385234638 4.7232058823000003 4.7078883007999996 4.8350019295999997 4.9669591147999999 5.0989163 5.2308734852000001 5.2873683746999998 5.3349837782999998 5.3825991818999999 5.4302145854999999 5.4778299891 5.5170783343999998 5.5286733476999999 5.5402683609999999 5.5518633742999999 5.5634583875999999 5.5750534008999999 5.5866484141999999 5.5982434274999999 5.6098384408999999 5.6214334542 5.6330284675 5.6789886558999996 5.9339885828999996 6.0566466095999996 6.0425799980999999 6.0285133867000003 6.0144467751999997 6.0003801638000001 5.9863135523000004 5.9722469408999999 5.9602271033000003 5.9523138922000003 5.9444006812000003 5.9364874702000003 5.9285742591000004 5.9206610481000004 5.9127478370000004 5.9048346260000004 5.8969214149000004 5.8890082038999996 5.8810949928999996 5.8731817817999996 5.8652685707999996 5.8573553596999997 5.8494421486999997 5.8415289376999997 5.8336157265999997 5.8257025155999997 5.8177893044999998 5.8038268016999996 5.7873330418000002 5.7708392818999998 5.7543455220000004 5.7378517621 5.7213580021999997 5.7048642423000002 5.6883704822999999 5.6718767224000004 5.6553829625000001 5.6388892025999997 5.6223954427000002 5.6059016827999999 5.5894079229000004 5.5729141630000001 5.5564204030999997 5.5399266432000003 5.5234328832999999 5.5069391232999996 5.4904453634000001 5.4739516034999998 5.4574578436000003 5.4409640837 5.4244703237999996 5.4079765639000001 5.3947025145999996 5.3910781794 5.3874538442000004 5.3838295089999999 5.3802051738000003 5.3765808385999998 5.3729565034000002 5.3693321680999997 5.3657078329000001 5.3620834976999996 5.3584591625 5.3548348273000004 5.3512104920999999 5.3531485861999997 5.3725319396 5.3919152929000003 5.4112986462999997 5.4306819996 5.4500653530000003 5.4694487062999997 5.4888320597 5.5082154130000003 5.5275987663999997 5.5469821197 5.709454719 5.8860417241 6.0626287293000001 6.2392157345000001 6.4158027396000001 6.5244429966000004 6.6039104943 6.6833779918999996 6.7628454895000001 6.8423129870999997 6.9217804847000002 7.0012479822999998 7.0807154800000003 7.1601829775999999 7.2492934262000004 7.3723989291000001 7.4955044319999997 7.6186099349000003 7.7417154377999999 7.8648209406999996 7.9879264436000001 8.1110319465000007 8.2341374494000004 8.3572429523 8.4803484551999997 8.6034539580999994 8.5116880681999998 8.4044289104000001 7.9122583570999998 7.9304991003999996 7.9487398437000003 7.9669805870000001 7.9852213302999999 8.0034620735999997 8.0217028168999995 8.0399435601999993 8.0581843034999991 8.0764250468000007 8.0946657901000005 8.1129065334000003
5.1141893167000001 5.0673158358999997 5.0443203059000004 5.0298568816999998 5.0153934575000001 5.0009300333000004 4.9864666091999998 4.9720031850000002 4.9575397607999996 4.9430763365999999 4.9286129125000002 4.9141494882999996 4.8996860641 4.8852226399000003 4.8707592157999997 4.8562957916 4.8418323674000003 4.8273689431999998 4.8129055191000001 4.7984420949000004 4.7839786706999998 4.7695152465000001 4.7550518223999996 4.7401742361999997 4.7248566546999999 4.7251745476 4.8571317328000001 4.9890889180000002 5.0907419816999999 5.1383573853 5.1859727889 5.2335881925000001 5.2812035961000001 5.3288189998000002 5.3764344034000002 5.4240498070000003 5.4511970444999998 5.4627920577999998 5.4743870710999998 5.4859820843999998 5.4975770976999998 5.5091721109999998 5.5207671243999998 5.5323621376999998 5.5439571509999999 5.5555521642999999 5.5671471775999999 5.8192674588999997 6.0268967211 6.0128301097000003 5.9987634981999998 5.9846968868000001 5.9706302752999996 5.9565636637999999 5.9424970524000003 5.9306449006999999 5.9227316897 5.9148184786 5.9069052676 5.8989920565 5.8910788455 5.8831656345000001 5.8752524234000001 5.8673392124000001 5.8594260013000001 5.8515127903000002 5.8435995792000002 5.8356863682000002 5.8277731572000002 5.8198599461000002 5.8119467351000003 5.8040335240000003 5.7961203130000003 5.7882071020000003 5.7802938909000003 5.771439419 5.7549456590999997 5.7384518992000002 5.7219581392999999 5.7054643794000004 5.6889706195 5.6724768595999997 5.6559830996000002 5.6394893396999999 5.6229955798000004 5.6065018199000001 5.5900080599999997 5.5735143001000003 5.5570205401999999 5.5405267802999996 5.5240330204000001 5.5075392604999998 5.4910455006000003 5.4745517406999999 5.4580579806999996 5.4415642208000001 5.4250704608999998 5.4085767010000003 5.3920829411 5.3818945433999996 5.3782702082 5.3746458730000004 5.3710215377999999 5.3673972026000003 5.3637728672999998 5.3601485321000002 5.3565241968999997 5.3528998617000001 5.3492755264999996 5.3456511913 5.3420268561000004 5.3384025208999999 5.3347781857000003 5.3311538503999998 5.3503941153000003 5.3697774686999997 5.389160822 5.4085441754000003 5.4279275286999997 5.4473108821 5.4666942354000003 5.4860775886999997 5.5546812258999996 5.7312682310999996 5.9078552362999996 6.0844422414999997 6.2610292465999997 6.4376162517999997 6.5958797388999999 6.6753472365000004 6.7548147341 6.8342822316999996 6.9137497294000001 6.9932172269999997 7.0726847246000002 7.1521522221999998 7.2316197198000003 7.3110872173999999 7.3905547150000004 7.4721021356000001 7.5952076384999998 7.7183131414000004 7.8414186443 7.9645241471999997 8.0876296501000002 8.2107351529999999 8.3338406558999996 8.4569461587999992 8.5800516617000007 8.4760793224000004 8.3688201646000007 7.8810553756999999 7.8992961189999997 7.9175368623000004 7.9357776056000002 7.9540183489 7.9722590921999998 7.9904998354999996 8.0087405787999995 8.0269813220999993 8.0452220654000008 8.0634628087000007 8.0817035520000005
5.1172439595999997 5.0703704788000001 5.0451093877000002 5.0306459635999996 5.0161825393999999 5.0017191152000002 4.9872556909999997 4.9727922669 4.9583288427000003 4.9438654184999997 4.9294019943 4.9149385702000004 4.9004751459999998 4.8860117218000001 4.8715482976000004 4.8570848734999998 4.8426214493000002 4.8281580250999996 4.8136946008999999 4.7992311768000002 4.7847677525999996 4.7703043284 4.7558409042000003 4.7413774800999997 4.7265074270999996 4.7473043507000003 4.8792615358999996 4.9417309923000001 4.9893463959000002 5.0369617995000002 5.0845772032000003 5.1321926068000003 5.1798080104000004 5.2274234140000004 5.2750388175999996 5.3226542211999996 5.3702696248999997 5.3853157545999997 5.3969107678999997 5.4085057811999997 5.4201007944999997 5.4316958078999997 5.4432908211999997 5.4548858344999998 5.4664808477999998 5.4780758610999998 5.4896708743999998 5.7045463347999998 5.9595462617999999 5.9830802211999998 5.9690136097000002 5.9549469982999996 5.9408803868 5.9268137754000003 5.9127471638999998 5.9010626980999996 5.8931494870999996 5.8852362759999997 5.8773230649999997 5.8694098539999997 5.8614966428999997 5.8535834318999997 5.8456702207999998 5.8377570097999998 5.8298437987999998 5.8219305876999998 5.8140173766999999 5.8061041655999999 5.7981909545999999 5.7902777434999999 5.7823645324999999 5.7744513215 5.7665381104 5.7586248994 5.7507116883 5.7427984773 5.7348852663000001 5.7225582764 5.7060645164999997 5.6895707566000002 5.6730769966999999 5.6565832368000004 5.6400894769000001 5.6235957169999997 5.6071019570000002 5.5906081970999999 5.5741144372000004 5.5576206773000001 5.5411269173999997 5.5246331575000003 5.5081393975999999 5.4916456376999996 5.4751518778000001 5.4586581178999998 5.4421643580000003 5.4256705981 5.4091768380999996 5.3926830782000001 5.3761893182999998 5.3690865721999996 5.365462237 5.3618379018000004 5.3582135665999999 5.3545892313000003 5.3509648960999998 5.3473405609000002 5.3437162256999997 5.3400918905000001 5.3364675552999996 5.3328432201 5.3292188849000004 5.3255945495999999 5.3219702144000003 5.3183458791999998 5.3147215440000002 5.3282562910999998 5.3476396444000001 5.3670229978000004 5.3864063510999998 5.4057897045000001 5.4251730578000004 5.4445564110999998 5.5764947381000001 5.7530817433000001 5.9296687485000001 6.1062557536000002 6.2828427588000002 6.4594297640000002 6.6360167691000003 6.7467839787999999 6.8262514764000004 6.905718974 6.9851864715999996 7.0646539692000001 7.1441214667999997 7.2235889644000002 7.3030564620999998 7.3825239597000003 7.4619914572999999 7.5414589549000004 7.6209264525 7.7003939500999996 7.8180163479000004 7.9411218508000001 8.0642273536999998 8.1873328565999994 8.3104383595000009 8.4335438624000005 8.5477297344000007 8.4404705765999992 7.8316116509000002 7.8498523942 7.8680931374999998 7.8863338807999996 7.9045746242000003 7.9228153675000001 7.9410561108 7.9592968540999998 7.9775375973999996 7.9957783407000003 8.0140190839999992 8.0322598273000008 8.0505005706000006
5.1202986025000001 5.0734251216999997 5.0458984696 5.0314350454000003 5.0169716212999997 5.0025081971000001 4.9880447729000004 4.9735813486999998 4.9591179246000001 4.9446545004000004 4.9301910761999999 4.9157276520000002 4.9012642278999996 4.8868008036999999 4.8723373795000002 4.8578739552999997 4.8434105312 4.8289471070000003 4.8144836827999997 4.8000202586 4.7855568345000004 4.7710934102999998 4.7566299861000001 4.7421665619000004 4.7277031377999998 4.7451045993000003 4.7927200029000003 4.8403354066000004 4.8879508102000004 4.9355662137999996 4.9831816173999997 5.0307970209999997 5.0784124245999998 5.1260278282999998 5.1736432318999999 5.2212586354999999 5.2688740391 5.3078394513999996 5.3194344646999996 5.3310294780999996 5.3426244913999996 5.3542195046999996 5.3658145179999996 5.3774095312999997 5.3890045445999997 5.4005995578999997 5.4121945711999997 5.5898252107999999 5.8448251378 5.9533303327000002 5.9392637212999997 5.9251971098 5.9111304984000004 5.8970638868999998 5.8829972755000002 5.8714804955000002 5.8635672845000002 5.8556540735000002 5.8477408624000002 5.8398276514000003 5.8319144403000003 5.8240012293000003 5.8160880183000003 5.8081748072000003 5.8002615962000004 5.7923483851000004 5.7844351741000004 5.7765219631000004 5.7686087519999996 5.7606955409999996 5.7527823298999996 5.7448691188999996 5.7369559077999996 5.7290426967999997 5.7211294857999997 5.7132162746999997 5.7053030636999997 5.6973898525999997 5.6894766415999998 5.6736771338 5.6571833738999997 5.6406896140000002 5.6241958540999999 5.6077020942000004 5.5912083343000001 5.5747145743999997 5.5582208144000003 5.5417270544999999 5.5252332945999996 5.5087395347000001 5.4922457747999998 5.4757520149000003 5.4592582549999999 5.4427644950999996 5.4262707352000001 5.4097769752999998 5.3932832154000003 5.3767894555 5.3602956954999996 5.3562786009999996 5.3526542658 5.3490299305000004 5.3454055952999999 5.3417812601000003 5.3381569248999998 5.3345325897000002 5.3309082544999997 5.3272839193000001 5.3236595840999996 5.3200352489 5.3164109136000004 5.3127865783999999 5.3091622432000003 5.3055379079999998 5.3019135728000002 5.2982892375999997 5.3061184668000001 5.3255018202000004 5.3448851734999998 5.3642685269000001 5.3836518802000004 5.4217212450999996 5.5983082502999997 5.7748952553999997 5.9514822605999997 6.1280692657999998 6.3046562709999998 6.4812432760999998 6.6578302812999999 6.8182207210000003 6.8976882185999999 6.9771557162000004 7.0566232138 7.1360907114999996 7.2155582091000001 7.2950257066999997 7.3744932043000002 7.4539607018999998 7.5334281995000003 7.6128956970999999 7.6923631948000004 7.7718306924 7.8512981899999996 7.9307656876000001 8.0408250572999993 8.1639305602000007 8.2870360631000004 8.4101415660000001 8.5121209885999995 8.4048618307999998 7.8004086695000003 7.8186494128000001 7.8368901560999999 7.8551308993999998 7.8733716426999996 7.8916123860000003 7.9098531293000001 7.9280938725999999 7.9463346158999997 7.9645753592000004 7.9828161026000002 8.0010568459000009 8.0192975892000007
5.1233532453999997 5.0764797646000002 5.0466875514999998 5.0322241273000001 5.0177607031000004 5.0032972789999999 4.9888338548000002 4.9743704305999996 4.9599070063999999 4.9454435823000003 4.9309801580999997 4.9165167339 4.9020533097000003 4.8875898855999997 4.8731264614000001 4.8586630372000004 4.8441996129999998 4.8297361889000001 4.8152727647000004 4.8008093404999999 4.7863459163000002 4.7718824921999996 4.7574190679999999 4.7429556438000002 4.7408014890999999 4.7093125423000002 4.6913244171999997 4.7389398207999998 4.7865552243999998 4.8341706279999999 4.8817860316999999 4.9294014353 4.9770168389 5.0246322425000001 5.0722476461000001 5.1198630498000002 5.1674784534000002 5.2150938570000003 5.2419581616000004 5.2535531749000004 5.2651481882000004 5.2767432015000004 5.2883382148000004 5.2999332280999996 5.3115282413999996 5.3231232546999996 5.3347182680999996 5.4751040868 5.7301040138000001 5.9235804442999997 5.9095138328000001 5.8954472213000004 5.8813806098999999 5.8673139984000002 5.8532473869999997 5.8418982929999999 5.8339850818999999 5.8260718708999999 5.8181586597999999 5.8102454487999999 5.8023322378 5.7944190267 5.7865058157 5.7785926046 5.7706793936 5.7627661826000001 5.7548529715000001 5.7469397605000001 5.7390265494000001 5.7311133384000001 5.7232001274000002 5.7152869163000002 5.7073737053000002 5.6994604942000002 5.6915472832000003 5.6836340721000003 5.6757208611000003 5.6678076501000003 5.6598944390000003 5.6519812280000004 5.6412897511000004 5.6247959912000001 5.6083022312999997 5.5918084714000003 5.5753147114999999 5.5588209515999996 5.5423271917000001 5.5258334317999998 5.5093396718000003 5.4928459118999999 5.4763521519999996 5.4598583921000001 5.4433646321999998 5.4268708723000003 5.4103771124 5.3938833524999996 5.3773895926000002 5.3608958326999998 5.3470949650000001 5.3434706297999996 5.3398462945 5.3362219593000004 5.3325976240999999 5.3289732889000003 5.3253489536999998 5.3217246185000002 5.3181002832999997 5.3144759481000001 5.3108516128999996 5.3072272776 5.3036029424000004 5.2999786071999999 5.2963542720000003 5.2927299367999998 5.2891056016000002 5.2854812663999997 5.2818569312000001 5.2839806426000004 5.3033639958999998 5.3227473492000001 5.3421307025999996 5.4435347573000001 5.6201217624000002 5.7967087676000002 5.9732957728000002 6.1498827780000003 6.3264697831000003 6.5030567883000003 6.6796437935000004 6.8562307986000004 6.9691249609000003 7.0485924584999999 7.1280599561000004 7.2075274537 7.2869949512999996 7.3664624489000001 7.4459299464999997 7.5253974442000002 7.6048649417999998 7.6843324394000003 7.7637999369999999 7.8432674346000004 7.9227349322 8.0022024298000005 8.0816699275000001 8.1611374250999997 8.2636337666999999 8.3867392695999996 8.4765122428000002 7.7509649447999998 7.7692056880999996 7.7874464314000003 7.8056871747000001 7.8239279179999999 7.8421686612999997 7.8604094046000004 7.8786501479000002 7.8968908912 7.9151316344999998 7.9333723777999996 7.9516131211000003 7.9698538644000001 7.9880946076999999
5.1264078883000002 5.0795344074999997 5.0474766333999996 5.0330132091999999 5.0185497850000003 5.0040863607999997 4.9896229367 4.9751595125000003 4.9606960882999998 4.9462326641000001 4.9317692400000004 4.9173058157999998 4.9028423916000001 4.8883789674000004 4.8739155432999999 4.8594521191000002 4.8449886948999996 4.8305252706999999 4.8160618466000003 4.8015984223999997 4.7871349982 4.7726715740000003 4.7582081498999997 4.7752324194 4.7437434726000003 4.7122545257999997 4.680765579 4.6492766322000003 4.6851596387000001 4.7327750423000001 4.7803904459000002 4.8280058495000002 4.8756212532000003 4.9232366568000003 4.9708520604000004 5.0184674640000004 5.0660828675999996 5.1136982711999996 5.1613136748999997 5.1760768717000003 5.1876718850000003 5.1992668983000003 5.2108619116000003 5.2224569249000004 5.2340519382000004 5.2456469516000004 5.2572419649000004 5.3603829627000001 5.6153828897000002 5.8703828167000003 5.8797639442999996 5.8656973328999999 5.8516307214000003 5.8375641099999998 5.8234974985000001 5.8123160904000004 5.8044028794000004 5.7964896682999996 5.7885764572999996 5.7806632461999996 5.7727500351999996 5.7648368240999996 5.7569236130999997 5.7490104020999997 5.7410971909999997 5.7331839799999997 5.7252707688999998 5.7173575578999998 5.7094443468999998 5.7015311357999998 5.6936179247999998 5.6857047136999999 5.6777915026999999 5.6698782915999999 5.6619650805999999 5.6540518695999999 5.6461386585 5.6382254475 5.6303122364 5.6223990254 5.6144858144000001 5.6065726033000001 5.5924086085000004 5.5759148486000001 5.5594210886999997 5.5429273288000003 5.5264335688999999 5.5099398089999996 5.4934460491000001 5.4769522890999998 5.4604585292000003 5.4439647693 5.4274710093999996 5.4109772495000001 5.3944834895999998 5.3779897297000003 5.3614959698 5.3450022098999996 5.3342869937000001 5.3306626584999997 5.3270383233 5.3234139881000004 5.3197896528999999 5.3161653177000003 5.3125409824999998 5.3089166473000002 5.3052923120999997 5.3016679768000001 5.2980436415999996 5.2944193064 5.2907949712000004 5.2871706359999999 5.2835463008000003 5.2799219655999998 5.2762976304000002 5.2726732951999997 5.2690489599000001 5.2654246246999996 5.2618428182999999 5.2812261716000002 5.3006095249999996 5.4653482693999997 5.6419352745999998 5.8185222797999998 5.9951092848999998 6.1716962900999999 6.3482832952999999 6.5248703004999999 6.7014573056 6.8780443108 7.0405617030999998 7.1200292007000003 7.1994966982999999 7.2789641959000004 7.3584316936 7.4378991911999996 7.5173666888000001 7.5968341863999997 7.6763016840000002 7.7557691815999998 7.8352366792000003 7.9147041768999999 7.9941716745000004 8.0736391721 8.1531066696999996 8.2325741672999992 8.3120416649000006 8.3915091625000002 7.7338846331999997 7.7197619633999999 7.7380027066999997 7.7562434500000004 7.7744841933000002 7.7927249366 7.8109656798999998 7.8292064231999996 7.8474471665000003 7.8656879098000001 7.8839286530999999 7.9021693963999997 7.9204101397000004 7.9386508830000002 7.9568916263
